ncols         474
nrows         32
xllcorner     425717.349917
yllcorner     5094274.54042
cellsize      9.99999999996
NODATA_value  -9999
0 0 0 0 0 0 0 0 0 0 0 0 0 0 0 0 0 0 0 0 0 0 0 0 0 0 0 0 0 0 0 0 0 0 0 0 0 0 0 0 0 0 0 0 0 0 0 0 0 0 0 0 0 0 0 0 0 0 0 0 0 0 0 0 0 0 0 0 0 0 0 0 0 0 0 0 0 0 0 0 0 0 0 0 0 0 0 0 0 0 0 0 0 0 0 0 0 0 0 0 0 0 0 0 0 0 0 0 0 0 0 0 0 0 0 0 0 0 0 0 0 0 0 0 0 0 0 0 0 0 0 0 0 0 0 0 0 0 0 0 0 0 0 0 0 0 0 0 0 0 0 0 0 0 0 0 0 0 0 0 0 0 0 0 0 0 0 0 0 0 0 0 0 0 0 0 0 0 0 0 0 0 0 0 0 0 0 0 0 0 0 0 0 0 0 0 0 0 0 0 0 0 0 0 0 0 0 0 0 0 0 0 0 0 0 0 0 0 0 0 0 0 0 0 0.1008054 0.4285552 0.7564576 1.01752 1.12677 1.236019 1.312336 1.312336 1.345047 1.454296 1.563546 1.64042 1.64042 1.64042 1.64042 1.64042 1.64042 1.64042 1.64042 1.64042 1.64042 1.64042 1.64042 1.679342 1.824773 2.002631 2.190243 2.035513 2.214598 2.267582 2.268458 2.172558 2.066709 1.981727 1.971646 1.935881 1.824192 1.714866 1.684309 1.806204 1.917515 2.01387 2.077865 2.077865 2.045878 1.968504 1.946895 1.929046 2.010044 2.031879 2.046547 1.937298 1.796953 1.54747 1.250592 1.062853 0.984252 0.984252 0.984252 0.8933091 0.5556937 0.2279444 0 0 0 0 0.007659321 0.1137849 0.464266 0.8941191 1.230701 1.306739 1.312336 1.312336 1.312336 1.312336 1.312336 1.312336 1.312336 1.312336 1.312336 1.323966 1.368978 1.4556 1.614816 1.726885 1.796672 1.786804 1.776936 1.785645 1.84705 1.915026 1.968504 1.946615 1.943256 1.848637 1.736098 1.651497 1.64042 1.670117 1.776175 1.888715 1.935754 1.823215 1.712784 1.64042 1.612769 1.548161 1.525885 1.462278 1.417466 1.333993 1.312336 1.312336 1.312336 1.293858 1.21915 1.113189 1.02277 0.8936619 0.5659129 0.2381639 0 0 0.1876789 0.934355 1.88473 3.032717 3.575676 4.118635 4.661593 5.204553 5.747511 6.29047 6.833428 7.376388 7.917038 8.462305 9.062357 9.795728 10.5253 11.27918 12.05137 12.79933 13.44473 14.00895 14.57231 15.18421 15.80136 16.41685 16.95323 17.48961 18.05579 18.70142 19.34704 19.96321 20.49959 21.01663 21.49673 22.0008 22.90186 23.32241 23.76894 24.32441 25.07088 26.10709 27.33452 28.62557 29.94134 31.35822 32.8689 34.51934 36.30667 38.09451 39.96558 41.72159 43.49605 45.16611 46.94716 49.28135 52.93874 57.9777 64.08821 71.00475 79.30726 88.44923 96.56223 101.8642 104.3618 104.8606 104.2313 102.4188 100.3194 105.2661 104.4626 103.7038 103.1164 102.8372 102.9882 103.3744 103.8938 104.4326 105.2122 106.058 106.9364 107.6125 108.4606 109.223 110.1392 111.0001 112.0619 113.1862 114.5046 116.037 117.6879 119.3989 121.1193 122.9137 124.7592 126.6926 128.7055 130.7717 132.8895 135.0617 137.1076 138.8879 145.8557 147.127 147.6086 147.4678 146.697 145.7295 146.9461 150.8489 157.6158 164.8874 172.5437 179.7098 186.0538 191.7358 198.6196 209.0609 222.5242 236.8815 249.8683 262.6733 275.6591 287.3167 -9999 -9999
0 0 0 0 0 0 0 0 0 0 0 0 0 0 0 0 0 0 0 0 0 0 0 0 0 0 0 0 0 0 0 0 0 0 0 0 0 0 0 0 0 0 0 0 0 0 0 0 0 0 0 0 0 0 0 0 0 0 0 0 0 0 0 0 0 0 0 0 0 0 0 0 0 0 0 0 0 0 0 0 0 0 0 0 0 0 0 0 0 0 0 0 0 0 0 0 0 0 0 0 0 0 0 0 0 0 0 0 0 0 0 0 0 0 0 0 0 0 0 0 0 0 0 0 0 0 0 0 0 0 0 0 0 0 0 0 0 0 0 0 0 0 0 0 0 0 0 0 0 0 0 0 0 0 0 0 0 0 0 0 0 0 0 0 0 0 0 0 0 0 0 0 0 0 0 0 0 0 0 0 0 0 0 0 0 0 0 0 0 0 0 0 0 0 0 0 0 0 0 0 0 0 0 0 0 0 0 0 0 0 0 0 0 0 0 0 0 0 0 0 0 0 0 0 0.1106702 0.43842 0.8028372 1.12727 1.233232 1.306008 1.312336 1.312336 1.318703 1.370855 1.483394 1.586407 1.64042 1.64042 1.64042 1.64042 1.660872 1.720172 1.772902 1.801941 1.776052 1.720013 1.670546 1.64042 1.64042 1.687357 1.846335 1.696122 1.868647 2.061355 2.220652 2.263378 2.256349 2.15841 2.045871 1.969244 1.930155 1.817616 1.710835 1.656417 1.706817 1.822645 1.959744 2.077865 2.068674 2.021137 1.933452 1.871399 1.900793 1.9388 1.982126 1.876165 1.735821 1.502404 1.244015 1.059564 0.984252 0.984252 0.984252 0.8834432 0.4614328 0.1685397 0 0 0 0 0.1083326 0.4377634 0.8015377 1.126421 1.238639 1.312336 1.312336 1.312336 1.312336 1.312336 1.312336 1.312336 1.312336 1.312336 1.312336 1.312336 1.312336 1.34207 1.445642 1.596712 1.792812 1.9012 1.954533 1.913483 1.890871 1.908274 1.946056 1.968504 1.994053 1.9546 1.848314 1.745203 1.661144 1.64655 1.674134 1.782752 1.894796 1.929178 1.816638 1.707507 1.635972 1.593864 1.496345 1.394623 1.330876 1.312336 1.312336 1.312336 1.312336 1.278404 1.169154 1.059904 0.984252 0.8837951 0.556046 0.228297 0 0 0.2304918 1.060871 2.085689 3.184664 3.724333 4.264002 4.803672 5.339099 5.873208 6.416166 6.960159 7.502084 8.112656 8.85874 9.597975 10.31591 10.9725 11.63565 12.30538 12.97346 13.61645 14.23471 14.85758 15.50321 16.14884 16.76105 17.29743 17.83381 18.40327 19.0489 19.69453 20.32044 20.884 21.41709 21.95018 22.45993 23.46127 23.88182 24.30894 24.85093 25.68315 26.79188 28.17866 29.57508 31.00276 32.5326 34.19833 36.00465 37.81521 39.65181 41.5324 43.32711 45.04184 46.55194 48.16905 50.37537 53.94669 59.23869 65.95315 73.71741 82.1457 90.2643 96.77694 100.865 103.1313 104.4958 105.6408 106.1724 106.0531 104.5807 104.0539 103.5358 103.044 102.802 102.8128 103.1165 103.57 104.0568 104.6216 105.2648 106.0299 106.7131 107.4468 108.2699 109.2097 110.2224 111.3904 112.7288 114.2498 115.9497 117.874 119.9002 122.0278 124.2231 126.477 128.8498 131.3234 133.9216 136.5824 139.2594 141.7864 144.0473 149.8786 151.2323 151.9163 151.9206 151.4902 150.9043 150.9465 153.3174 158.4933 165.5613 172.792 179.4312 185.4312 190.6177 196.0226 204.2133 216.3377 231.1139 246.0801 261.0596 276.2502 289.5817 -9999 -9999
0 0 0 0 0 0 0 0 0 0 0 0 0 0 0 0 0 0 0 0 0 0 0 0 0 0 0 0 0 0 0 0 0 0 0 0 0 0 0 0 0 0 0 0 0 0 0 0 0 0 0 0 0 0 0 0 0 0 0 0 0 0 0 0 0 0 0 0 0 0 0 0 0 0 0 0 0 0 0 0 0 0 0 0 0 0 0 0 0 0 0 0 0 0 0 0 0 0 0 0 0 0 0 0 0 0 0 0 0 0 0 0 0 0 0 0 0 0 0 0 0 0 0 0 0 0 0 0 0 0 0 0 0 0 0 0 0 0 0 0 0 0 0 0 0 0 0 0 0 0 0 0 0 0 0 0 0 0 0 0 0 0 0 0 0 0 0 0 0 0 0 0 0 0 0 0 0 0 0 0 0 0 0 0 0 0 0 0 0 0 0 0 0 0 0 0 0 0 0 0 0 0 0 0 0 0 0 0 0 0 0 0 0 0 0 0 0 0 0 0 0 0 0 0 0.120535 0.4482849 0.8159903 1.133458 1.242707 1.312336 1.312336 1.312336 1.312336 1.351512 1.460762 1.570012 1.64042 1.666437 1.735376 1.797744 1.847279 1.88757 1.934432 1.968504 1.948058 1.884771 1.814913 1.762144 1.73949 1.696789 1.66066 1.722347 1.703618 1.706863 1.810832 2.006071 2.1985 2.249916 2.151834 2.039295 1.967677 1.923579 1.81104 1.702851 1.64593 1.698055 1.818406 1.939496 1.997108 1.961945 1.88199 1.834362 1.815104 1.874799 1.890731 1.821359 1.674437 1.455938 1.237438 1.056276 0.984252 0.984252 0.9490191 0.7793149 0.207878 0 0 0 0 0 0.1181986 0.4852361 0.9222353 1.240459 1.309201 1.312336 1.312336 1.312336 1.312336 1.312336 1.312336 1.312336 1.339544 1.413211 1.480307 1.517266 1.507398 1.49753 1.487663 1.514753 1.622006 1.742402 1.811002 1.752462 1.724072 1.786392 1.906364 1.997343 2.077865 2.046403 1.98058 1.93486 1.832306 1.719767 1.644095 1.678348 1.789329 1.898931 1.922601 1.810062 1.669107 1.510267 1.404307 1.327956 1.312336 1.312336 1.312336 1.312336 1.312336 1.275115 1.165865 1.056615 0.984252 0.8739282 0.5461791 0.2184301 0 0 0.2654759 1.13414 2.204785 3.393471 3.93643 4.479389 5.022347 5.531179 6.008596 6.55052 7.129437 7.775181 8.421906 9.075432 9.735529 10.39759 11.05308 11.73934 12.47978 13.21364 13.91381 14.55944 15.18034 15.75745 16.34112 16.93704 17.54197 18.14032 18.75076 19.39639 20.04202 20.68765 21.31052 21.8826 22.43715 22.96695 24.00336 24.44955 24.93487 25.59634 26.55901 27.77265 29.10038 30.57428 32.21738 33.96209 35.80522 37.71518 39.61857 41.45705 43.2139 44.99233 46.66343 48.19888 49.78931 51.98841 55.48511 60.56567 67.09019 74.57879 82.35408 89.5518 95.38836 99.43333 102.0174 103.5126 104.4598 104.9055 104.9267 103.4128 103.1174 102.75 102.4227 102.1756 102.199 102.5185 102.9949 103.4412 103.876 104.4135 104.9341 105.5263 106.1938 107.0348 107.985 109.0725 110.3572 111.8536 113.5501 115.4902 117.738 120.1522 122.7025 125.3178 128.0571 130.8626 133.7052 136.6298 139.6682 142.6833 145.5078 147.8996 152.6102 154.0749 154.9136 155.2196 155.2842 155.4022 156.0094 157.7877 161.5728 167.0812 173.4145 179.3494 184.6711 189.3237 193.662 199.8831 210.7002 225.7104 242.6776 259.7363 276.7153 291.2367 -9999 -9999
0 0 0 0 0 0 0 0 0 0 0 0 0 0 0 0 0 0 0 0 0 0 0 0 0 0 0 0 0 0 0 0 0 0 0 0 0 0 0 0 0 0 0 0 0 0 0 0 0 0 0 0 0 0 0 0 0 0 0 0 0 0 0 0 0 0 0 0 0 0 0 0 0 0 0 0 0 0 0 0 0 0 0 0 0 0 0 0 0 0 0 0 0 0 0 0 0 0 0 0 0 0 0 0 0 0 0 0 0 0 0 0 0 0 0 0 0 0 0 0 0 0 0 0 0 0 0 0 0 0 0 0 0 0 0 0 0 0 0 0 0 0 0 0 0 0 0 0 0 0 0 0 0 0 0 0 0 0 0 0 0 0 0 0 0 0 0 0 0 0 0 0 0 0 0 0 0 0 0 0 0 0 0 0 0 0 0 0 0 0 0 0 0 0 0 0 0 0 0 0 0 0 0 0 0 0 0 0 0 0 0 0 0 0 0 0 0 0 0 0 0 0 0 0 0.1303999 0.4581498 0.8291435 1.136746 1.245996 1.312336 1.312336 1.312336 1.347295 1.44131 1.547271 1.653232 1.746589 1.829147 1.90497 1.942194 1.968504 1.968504 1.968504 1.968504 1.968504 1.968504 1.968504 1.968504 1.941578 1.864954 1.781758 1.968504 1.934409 1.844446 1.741033 1.738428 1.922027 2.134162 2.241839 2.144179 2.033658 1.966285 1.917003 1.804464 1.697942 1.64769 1.704631 1.849378 1.999368 2.033647 1.95089 1.817624 1.765635 1.819184 1.859143 1.818071 1.66786 1.44936 1.230861 1.052987 0.984252 0.984252 0.863377 0.5356275 0.1980121 0 0 0 0 0 0.1312563 0.5032783 0.9369884 1.245328 1.312336 1.312336 1.312336 1.312336 1.312336 1.345854 1.42916 1.505894 1.558371 1.584295 1.61679 1.64042 1.64042 1.64042 1.64042 1.64042 1.64042 1.64042 1.65704 1.697673 1.757624 1.847414 1.947439 2.05956 2.062462 2.077865 2.042544 1.977954 1.930817 1.829165 1.718783 1.644141 1.683367 1.795906 1.902671 1.916024 1.76197 1.546781 1.380406 1.312336 1.312336 1.312336 1.312336 1.312336 1.312336 1.271826 1.162576 1.053326 0.984252 0.8640614 0.5363122 0.2085632 0 0.0996522 0.5681031 1.497862 2.543189 3.519167 4.062126 4.605085 5.148044 5.695948 6.247215 6.831295 7.476925 8.122555 8.768185 9.413814 10.05944 10.70507 11.3507 12.03723 12.7921 13.54698 14.23183 14.80257 15.36644 15.935 16.54299 17.13831 17.74726 18.39618 19.06438 19.74388 20.38951 21.03514 21.68077 22.3264 22.94494 23.49953 24.50663 25.08401 25.71651 26.5031 27.48276 28.7042 30.11595 31.75978 33.51291 35.37091 37.33147 39.39106 41.46609 43.39073 45.14533 46.81754 48.41791 49.9933 51.66589 53.89824 57.22654 61.89756 67.82545 74.51965 81.3661 87.6888 93.07848 97.35715 100.4027 102.2784 103.2217 103.5567 103.5975 102.1761 102.0978 101.8399 101.4466 101.0721 100.9622 101.1086 101.4595 101.8573 102.3775 102.9678 103.5161 104.0092 104.5892 105.354 106.2345 107.2706 108.5903 110.313 112.4089 114.8185 117.5531 120.4501 123.4175 126.3953 129.4609 132.5656 135.6455 138.7524 141.9158 145.0612 147.9409 150.5358 154.6682 156.4997 157.6646 158.4481 159.1876 160.0811 161.3419 163.0306 164.7339 167.5084 172.3798 178.3097 183.9156 188.0067 191.6984 196.4993 205.7298 220.5654 238.9614 257.5919 274.9294 289.3861 -9999 -9999
0 0 0 0 0 0 0 0 0 0 0 0 0 0 0 0 0 0 0 0 0 0 0 0 0 0 0 0 0 0 0 0 0 0 0 0 0 0 0 0 0 0 0 0 0 0 0 0 0 0 0 0 0 0 0 0 0 0 0 0 0 0 0 0 0 0 0 0 0 0 0 0 0 0 0 0 0 0 0 0 0 0 0 0 0 0 0 0 0 0 0 0 0 0 0 0 0 0 0 0 0 0 0 0 0 0 0 0 0 0 0 0 0 0 0 0 0 0 0 0 0 0 0 0 0 0 0 0 0 0 0 0 0 0 0 0 0 0 0 0 0 0 0 0 0 0 0 0 0 0 0 0 0 0 0 0 0 0 0 0 0 0 0 0 0 0 0 0 0 0 0 0 0 0 0 0 0 0 0 0 0 0 0 0 0 0 0 0 0 0 0 0 0 0 0 0 0 0 0 0 0 0 0 0 0 0 0 0 0 0 0 0 0 0 0 0 0 0 0 0 0 0 0 0.01276225 0.1601787 0.4780621 0.8424008 1.140034 1.249284 1.312336 1.312336 1.312336 1.3582 1.46745 1.611385 1.765772 1.871733 1.94735 1.968504 1.968504 1.968504 1.968504 1.968504 1.968504 1.968504 1.968504 1.968504 1.968504 1.968504 1.968504 1.968504 1.968504 1.968504 1.968504 1.929157 1.832422 1.724591 1.738509 1.942428 2.121229 2.138682 2.028579 1.964696 1.910427 1.797888 1.693232 1.649648 1.721774 1.852571 1.955176 1.944447 1.814336 1.722243 1.730273 1.79834 1.780598 1.661283 1.442783 1.224283 1.049699 0.984252 0.984252 0.8535112 0.5257616 0.1881462 0 0 0 0 0 0.1839075 0.6209068 1.057906 1.311287 1.312336 1.312336 1.312336 1.351351 1.441013 1.532959 1.600953 1.62381 1.64042 1.64042 1.64042 1.64042 1.64042 1.64042 1.64042 1.64042 1.64042 1.64042 1.666008 1.734834 1.810232 1.876813 1.917257 1.982851 1.989427 2.055936 2.059225 2.023137 1.968504 1.968504 1.925311 1.815975 1.704342 1.689943 1.760616 1.767206 1.713392 1.588559 1.465646 1.362915 1.312336 1.312336 1.312336 1.312336 1.312336 1.268537 1.159287 1.050038 0.984252 0.8541945 0.5264454 0.1986963 0 0.3003419 1.121932 2.099856 2.976208 3.670783 4.210453 4.750122 5.296457 5.887524 6.533154 7.176234 7.821519 8.470042 9.115671 9.761302 10.40693 11.05256 11.69819 12.35195 13.02231 13.69924 14.35868 14.9796 15.59395 16.21759 16.83695 17.40265 17.96196 18.60027 19.32629 20.06111 20.737 21.38263 22.02825 22.67388 23.31951 23.93454 25.06788 25.82846 26.58174 27.41837 28.46736 29.78839 31.34516 33.00992 34.81514 36.78535 38.89993 41.09322 43.18485 45.16087 46.97748 48.66376 50.29861 51.91323 53.64061 55.7345 58.66278 62.75885 67.99649 73.96294 80.03619 85.71012 90.85159 95.27043 98.72369 100.937 101.9979 102.2722 102.2431 100.4664 100.5867 100.5999 100.4168 100.1376 100.0295 100.1607 100.4299 100.6897 100.9495 101.2282 101.5632 101.9637 102.4204 103.0066 103.7497 104.8722 106.5366 108.6846 111.2506 114.1283 117.3884 120.7798 124.2227 127.6 130.9302 134.1333 137.1959 140.2499 143.3086 146.3279 149.2804 152.1694 156.0468 158.294 160.0156 161.5009 162.8701 164.2107 165.6203 167.3687 169.3643 171.4387 174.3968 178.5371 183.0665 186.8143 189.8648 193.4792 200.7341 214.603 233.4294 252.9615 269.9741 283.8995 -9999 -9999
0 0 0 0 0 0 0 0 0 0 0 0 0 0 0 0 0 0 0 0 0 0 0 0 0 0 0 0 0 0 0 0 0 0 0 0 0 0 0 0 0 0 0 0 0 0 0 0 0 0 0 0 0 0 0 0 0 0 0 0 0 0 0 0 0 0 0 0 0 0 0 0 0 0 0 0 0 0 0 0 0 0 0 0 0 0 0 0 0 0 0 0 0 0 0 0 0 0 0 0 0 0 0 0 0 0 0 0 0 0 0 0 0 0 0 0 0 0 0 0 0 0 0 0 0 0 0 0 0 0 0 0 0 0 0 0 0 0 0 0 0 0 0 0 0 0 0 0 0 0 0 0 0 0 0 0 0 0 0 0 0 0 0 0 0 0 0 0 0 0 0 0 0 0 0 0 0 0 0 0 0 0 0 0 0 0 0 0 0 0 0 0 0 0 0 0 0 0 0 0 0 0 0 0 0 0 0 0 0 0 0 0 0 0 0 0 0 0 0 0 0 0 0 0.1504638 0.4782137 0.8074426 1.033992 1.143322 1.252572 1.312336 1.312336 1.35417 1.451067 1.557028 1.637647 1.718887 1.831426 1.927867 1.968504 1.968504 1.968504 1.968504 1.968504 1.968504 1.968504 1.968504 1.968504 1.968504 1.968504 1.968504 1.968504 1.968504 1.968504 1.968504 1.968504 1.968504 1.923531 1.820022 1.70815 1.739715 1.913964 2.018305 2.023698 1.96291 1.903851 1.791312 1.688718 1.651803 1.717784 1.830323 1.879001 1.811047 1.672282 1.62431 1.689088 1.717389 1.654706 1.436206 1.217706 1.04641 0.984252 0.984252 0.8436453 0.5158957 0.1782803 0 0 0 0 0.02030995 0.2288884 0.6527311 1.074101 1.312336 1.312336 1.312336 1.355698 1.455114 1.561075 1.628326 1.64042 1.64042 1.64042 1.64042 1.64042 1.64042 1.64042 1.64042 1.64042 1.64042 1.64042 1.64042 1.64042 1.64042 1.64042 1.671986 1.764349 1.876889 1.908574 1.968504 1.976842 1.983745 1.980455 1.973295 1.968504 1.920781 1.809398 1.654404 1.546628 1.553207 1.595245 1.592439 1.483189 1.37394 1.312336 1.312336 1.312336 1.312336 1.282693 1.199855 1.093894 1.013138 0.984252 0.8443276 0.5165785 0.1888294 0 0.3233647 1.180279 2.22316 3.114153 3.865684 4.432955 4.993653 5.589382 6.22939 6.867128 7.465759 8.056973 8.708675 9.357594 9.961697 10.55645 11.20865 11.86086 12.51307 13.20245 13.93569 14.59403 15.1652 15.74294 16.35694 16.99397 17.60154 18.20255 18.84204 19.56782 20.32598 21.05764 21.73011 22.37574 23.02137 23.68083 24.35497 25.66004 26.50438 27.32917 28.20265 29.24922 30.61931 32.26014 34.13817 36.17134 38.40518 40.748 43.04034 45.13359 47.01135 48.81678 50.52284 52.08632 53.53822 55.0482 56.92688 59.48289 63.01305 67.53018 72.8075 78.32547 83.78687 89.00459 93.6719 97.55965 100.0595 101.128 101.003 100.5961 99.03838 99.25687 99.43436 99.23599 98.8092 98.56592 98.68973 99.10951 99.49441 99.74921 99.95923 100.1189 100.2534 100.4373 100.7989 101.4779 102.6592 104.3808 106.8023 109.8375 113.3593 117.1959 121.1136 125.0796 128.8772 132.4193 135.6094 138.4724 141.1991 143.9941 146.9597 150.1415 153.2717 157.2461 160.1038 162.4664 164.4773 166.1959 167.727 169.1947 170.8465 172.8844 175.1387 177.4021 179.9744 182.9242 185.8934 188.4895 191.241 196.7557 208.4079 226.0371 245.5281 262.7061 276.5534 -9999 -9999
0 0 0 0 0 0 0 0 0 0 0 0 0 0 0 0 0 0 0 0 0 0 0 0 0 0 0 0 0 0 0 0 0 0 0 0 0 0 0 0 0 0 0 0 0 0 0 0 0 0 0 0 0 0 0 0 0 0 0 0 0 0 0 0 0 0 0 0 0 0 0 0 0 0 0 0 0 0 0 0 0 0 0 0 0 0 0 0 0 0 0 0 0 0 0 0 0 0 0 0 0 0 0 0 0 0 0 0 0 0 0 0 0 0 0 0 0 0 0 0 0 0 0 0 0 0 0 0 0 0 0 0 0 0 0 0 0 0 0 0 0 0 0 0 0 0 0 0 0 0 0 0 0 0 0 0 0 0 0 0 0 0 0 0 0 0 0 0 0 0 0 0 0 0 0 0 0 0 0 0 0 0 0 0 0 0 0 0 0 0 0 0 0 0 0 0 0 0 0 0 0 0 0 0 0 0 0 0 0 0 0 0 0 0 0 0 0 0 0 0 0 0 0 0.1603287 0.4880786 0.8690487 1.146563 1.252524 1.308857 1.312336 1.358588 1.457646 1.563607 1.628331 1.64042 1.692526 1.801776 1.911026 1.968504 1.968504 1.968504 1.968504 1.995059 2.046751 2.091873 2.108643 2.098776 2.070277 2.025128 1.986551 1.968504 2.049112 2.027709 1.99918 1.977223 1.968504 1.968504 1.968504 1.91753 1.807247 1.702532 1.71098 1.821178 1.917994 1.960926 1.940199 1.871631 1.768009 1.69649 1.72436 1.820125 1.84086 1.745885 1.620323 1.579837 1.607378 1.590317 1.429629 1.211129 1.043121 0.984252 0.984252 0.8337794 0.5060298 0.1684144 0 0 0 0 0.2106628 0.6476622 1.084661 1.312336 1.312336 1.312336 1.360244 1.461694 1.567654 1.630677 1.64042 1.64042 1.64042 1.64042 1.64042 1.64042 1.64042 1.64042 1.64042 1.64042 1.64042 1.64042 1.64042 1.64042 1.64042 1.64042 1.64042 1.690074 1.799324 1.886864 1.957238 2.003317 2.054852 2.071684 2.033861 1.976525 1.968603 1.91536 1.800643 1.638234 1.531059 1.537859 1.583436 1.56821 1.45567 1.356001 1.312336 1.312336 1.312336 1.261847 1.152598 1.043348 0.984252 0.984252 0.8344607 0.5067116 0.1789625 0 0.3640196 1.245558 2.324038 3.263672 3.99998 4.634911 5.26301 5.897682 6.498945 7.052875 7.600233 8.191303 8.838167 9.490376 10.13921 10.78431 11.43323 12.08214 12.77238 13.47665 14.15071 14.76698 15.34483 15.95876 16.58449 17.23011 17.87574 18.52137 19.167 19.83824 20.54513 21.27944 22.01102 22.70137 23.36886 24.06335 24.83151 26.1635 27.13359 28.11305 29.14968 30.29512 31.63867 33.25061 35.17895 37.43169 39.89457 42.41323 44.77174 46.86487 48.73154 50.45681 51.99459 53.26304 54.33812 55.55427 57.20071 59.50545 62.60266 66.50082 71.09988 76.13758 81.45261 86.77525 91.76231 96.04748 98.99554 100.2473 99.9894 99.26868 96.98209 97.15574 97.4917 97.55655 97.32449 97.15796 97.28719 97.74947 98.28931 98.66087 98.81412 98.90374 99.088 99.36559 99.71116 100.2452 101.1955 102.7688 105.1932 108.5433 112.6772 117.169 121.7364 126.204 130.3518 133.9707 137.0189 139.6388 142.0477 144.5302 147.3336 150.5572 153.9917 158.1773 161.5187 164.5574 167.3003 169.6632 171.5562 173.1017 174.5248 176.0952 177.9129 179.8637 181.9511 184.147 186.213 188.0299 190.024 193.7159 202.438 217.7471 236.6577 254.4192 268.6021 -9999 -9999
0 0 0 0 0 0 0 0 0 0 0 0 0 0 0 0 0 0 0 0 0 0 0 0 0 0 0 0 0 0 0 0 0 0 0 0 0 0 0 0 0 0 0 0 0 0 0 0 0 0 0 0 0 0 0 0 0 0 0 0 0 0 0 0 0 0 0 0 0 0 0 0 0 0 0 0 0 0 0 0 0 0 0 0 0 0 0 0 0 0 0 0 0 0 0 0 0 0 0 0 0 0 0 0 0 0 0 0 0 0 0 0 0 0 0 0 0 0 0 0 0 0 0 0 0 0 0 0 0 0 0 0 0 0 0 0 0 0 0 0 0 0 0 0 0 0 0 0 0 0 0 0 0 0 0 0 0 0 0 0 0 0 0 0 0 0 0 0 0 0 0 0 0 0 0 0 0 0 0 0 0 0 0 0 0 0 0 0 0 0 0 0 0 0 0 0 0 0 0 0 0 0 0 0 0 0 0 0 0 0 0 0 0 0 0 0 0 0 0 0 0 0 0 0.1701936 0.4979435 0.8822019 1.15001 1.25926 1.312336 1.312336 1.368288 1.477538 1.586788 1.64042 1.64042 1.65555 1.728861 1.8414 1.933933 1.968504 2.000118 2.058167 2.136059 2.212226 2.266696 2.296588 2.296588 2.262314 2.188138 2.107389 2.058979 2.296588 2.251986 2.161189 2.063821 2.002291 1.983819 1.971917 1.968504 1.968504 1.906922 1.797349 1.703697 1.721401 1.829118 1.924011 1.957103 1.887521 1.774982 1.695013 1.730936 1.788803 1.770983 1.640883 1.531059 1.531059 1.531059 1.423052 1.204552 1.039833 0.984252 0.984252 0.8239136 0.496164 0.1585485 0 0 0 0 0.2238175 0.6608168 1.097816 1.312336 1.312336 1.364987 1.468273 1.574234 1.632829 1.64042 1.64042 1.64042 1.64042 1.64042 1.64042 1.64042 1.64042 1.64042 1.6706 1.72681 1.776448 1.794359 1.784492 1.774624 1.764756 1.754888 1.728105 1.725944 1.788947 1.842821 1.925599 1.922058 1.914544 2.000415 2.107991 2.121644 1.968369 1.805452 1.699492 1.640389 1.580001 1.531059 1.539975 1.541685 1.476723 1.367473 1.312336 1.312336 1.312336 1.258559 1.149309 1.040059 0.984252 0.9033427 0.6685485 0.3506677 0.09884167 0 0.4221834 1.36597 2.484978 3.396185 4.2707 4.882013 5.445582 6.00258 6.595631 7.233788 7.878517 8.531104 9.184421 9.83005 10.47568 11.12131 11.76694 12.36691 12.97941 13.64197 14.3347 15.01052 15.64071 16.28634 16.93197 17.5776 18.19281 18.80957 19.45849 20.13287 20.80575 21.48179 22.21601 22.97418 23.69741 24.41413 25.23518 26.64338 27.62319 28.63508 29.75127 31.03794 32.50955 34.26045 36.38194 38.81436 41.44612 44.07225 46.43048 48.41929 50.10347 51.54699 52.70745 53.56548 54.30806 55.22998 56.56971 58.51431 61.19741 64.61987 68.7046 73.33639 78.40174 83.64612 88.7557 93.35776 96.84321 98.49411 98.38551 97.49046 95.02868 95.13188 95.46749 95.76582 95.86688 95.88766 95.99018 96.29944 96.82785 97.30728 97.56285 97.6562 97.8547 98.25791 98.75439 99.31824 100.1708 101.6773 104.1322 107.7296 112.3345 117.526 122.7954 127.7421 132.167 135.8716 138.7552 141.0224 143.0595 145.2385 147.8515 151.0022 154.573 159.8013 163.7083 167.3714 170.5727 173.1805 175.1553 176.7257 178.1294 179.4879 180.9224 182.488 184.1392 185.6306 186.853 187.9376 189.0111 191.0745 196.9989 209.4116 227.1586 245.4147 260.5376 -9999 -9999
0 0 0 0 0 0 0 0 0 0 0 0 0 0 0 0 0 0 0 0 0 0 0 0 0 0 0 0 0 0 0 0 0 0 0 0 0 0 0 0 0 0 0 0 0 0 0 0 0 0 0 0 0 0 0 0 0 0 0 0 0 0 0 0 0 0 0 0 0 0 0 0 0 0 0 0 0 0 0 0 0 0 0 0 0 0 0 0 0 0 0 0 0 0 0 0 0 0 0 0 0 0 0 0 0 0 0 0 0 0 0 0 0 0 0 0 0 0 0 0 0 0 0 0 0 0 0 0 0 0 0 0 0 0 0 0 0 0 0 0 0 0 0 0 0 0 0 0 0 0 0 0 0 0 0 0 0 0 0 0 0 0 0 0 0 0 0 0 0 0 0 0 0 0 0 0 0 0 0 0 0 0 0 0 0 0 0 0 0 0 0 0 0 0 0 0 0 0 0 0 0 0 0 0 0 0 0 0 0 0 0 0 0 0 0 0 0 0 0 0 0 0 0 0.1800584 0.5078084 0.8953552 1.153299 1.262549 1.312336 1.366127 1.467403 1.573364 1.631161 1.64042 1.64042 1.64042 1.658238 1.735437 1.847976 1.937545 1.993178 2.076231 2.18877 2.271562 2.296588 2.296588 2.296588 2.296588 2.296588 2.296588 2.296588 2.21664 2.226507 2.236374 2.246241 2.203735 2.11275 2.015193 1.968504 1.968504 1.966907 1.903188 1.790649 1.691907 1.66518 1.737843 1.841532 1.915779 1.880945 1.768406 1.654893 1.646543 1.68284 1.637864 1.527807 1.473985 1.477274 1.392433 1.197975 1.036544 0.984252 0.984252 0.8140477 0.4862981 0.1486826 0 0 0 0 0.2369721 0.6739715 1.110971 1.312336 1.369928 1.474853 1.580813 1.634784 1.64042 1.64042 1.64042 1.64042 1.64042 1.64042 1.679571 1.748703 1.811262 1.833501 1.848906 1.892287 1.94224 1.968504 1.968504 1.968504 1.968504 1.968504 1.930067 1.850558 1.806137 1.968504 1.968504 1.968504 1.91758 1.818166 1.816234 1.912365 2.022577 1.958802 1.796023 1.687801 1.634364 1.575554 1.531059 1.531059 1.518116 1.445694 1.3495 1.312336 1.312336 1.25527 1.14602 1.03677 0.984252 0.8143921 0.486643 0.1588938 0 0 0.4683581 1.469851 2.670736 3.629365 4.353148 4.978383 5.61019 6.256929 6.860556 7.414068 7.961008 8.558194 9.206336 9.861835 10.51733 11.17283 11.82833 12.47475 13.11875 13.77096 14.43735 15.10582 15.76132 16.41681 17.07231 17.72781 18.35911 18.98863 19.64083 20.34916 21.07986 21.77636 22.47848 23.21571 23.97388 24.76537 25.66002 27.14306 28.18839 29.17629 30.20712 31.39601 32.91391 34.87224 37.27169 39.99174 42.79411 45.4787 47.8321 49.70568 51.17036 52.23795 52.91815 53.34441 53.73312 54.27208 55.07561 56.47223 58.75171 61.8589 65.63577 69.97363 74.84613 79.99471 85.07079 89.66123 93.25347 95.31231 95.78658 95.38892 92.68941 93.01699 93.40279 93.81783 94.21674 94.49946 94.72955 95.05363 95.53383 96.06047 96.41521 96.65402 96.94666 97.40581 97.92079 98.49464 99.30149 100.6947 103.2024 107.0954 112.3072 118.2453 124.2102 129.7156 134.4372 138.2089 140.9486 142.9129 144.6195 146.5039 148.9307 152.0497 155.7899 162.4498 166.7761 170.8474 174.4202 177.235 179.2702 180.7497 181.902 182.97 183.9621 184.9951 186.2138 187.5316 188.6134 189.2618 189.7828 190.5612 193.2352 201.1913 216.0399 234.5344 251.4058 -9999 -9999
0 0 0 0 0 0 0 0 0 0 0 0 0 0 0 0 0 0 0 0 0 0 0 0 0 0 0 0 0 0 0 0 0 0 0 0 0 0 0 0 0 0 0 0 0 0 0 0 0 0 0 0 0 0 0 0 0 0 0 0 0 0 0 0 0 0 0 0 0 0 0 0 0 0 0 0 0 0 0 0 0 0 0 0 0 0 0 0 0 0 0 0 0 0 0 0 0 0 0 0 0 0 0 0 0 0 0 0 0 0 0 0 0 0 0 0 0 0 0 0 0 0 0 0 0 0 0 0 0 0 0 0 0 0 0 0 0 0 0 0 0 0 0 0 0 0 0 0 0 0 0 0 0 0 0 0 0 0 0 0 0 0 0 0 0 0 0 0 0 0 0 0 0 0 0 0 0 0 0 0 0 0 0 0 0 0 0 0 0 0 0 0 0 0 0 0 0 0 0 0 0 0 0 0 0 0 0 0 0 0 0 0 0 0 0 0 0 0 0 0 0 0 0 0.1899233 0.5211917 0.9113082 1.156587 1.265837 1.312336 1.374976 1.484226 1.593476 1.64042 1.64042 1.64042 1.64042 1.64042 1.661123 1.742013 1.854552 1.940959 1.996432 2.051333 2.112805 2.147572 2.157439 2.167305 2.177172 2.187039 2.196906 2.206773 1.968504 1.968504 1.968504 1.968504 1.968504 1.968504 1.968504 1.968504 1.968504 1.968504 1.964883 1.953377 1.880506 1.773876 1.690445 1.676099 1.754285 1.837031 1.840783 1.741657 1.614733 1.573589 1.576878 1.52546 1.478661 1.445584 1.361117 1.191398 1.033256 0.984252 0.984252 0.8041818 0.4764322 0.2090408 0.07188693 0.06201937 0.05215183 0.06650508 0.3087816 0.720418 1.1314 1.312869 1.374422 1.483672 1.592921 1.64042 1.64042 1.64042 1.64042 1.64042 1.685574 1.761062 1.849626 1.912882 1.949913 1.968504 1.968504 1.968504 1.968504 1.968504 1.968504 1.968504 1.968504 1.968504 1.968504 1.968504 1.968504 1.982622 1.989883 1.986594 1.97488 1.961963 1.898253 1.792293 1.748139 1.813628 1.856363 1.789446 1.683368 1.632129 1.571305 1.531059 1.483888 1.434113 1.361007 1.312336 1.312336 1.251981 1.142731 1.033481 0.984252 0.8045253 0.4767761 0.1490269 0 0 0.5341579 1.595792 2.836788 3.758343 4.590486 5.156921 5.716783 6.323164 6.968793 7.614423 8.260053 8.905683 9.551311 10.19694 10.84257 11.4882 12.13383 12.77946 13.42509 14.07072 14.71635 15.36198 16.00761 16.65324 17.29886 17.94449 18.59012 19.23575 19.88138 20.5579 21.29209 22.05026 22.77238 23.47536 24.2154 25.09104 26.0835 27.5515 28.66884 29.73386 30.80545 32.01357 33.50828 35.44913 37.877 40.68501 43.55411 46.31039 48.71271 50.51934 51.70988 52.39935 52.72461 52.75676 52.52015 52.26504 52.27769 53.10482 55.09545 58.16304 61.98409 66.30717 71.05588 76.05002 80.88122 85.05969 88.23792 90.35394 91.59856 92.28424 89.86642 90.61915 91.27041 91.8646 92.39745 92.86778 93.32839 93.81523 94.34896 94.92938 95.44019 95.83263 96.17915 96.64983 97.20854 97.82552 98.57448 99.90953 102.4109 106.6395 112.5055 119.2912 126.0679 132.1889 137.2663 141.0328 143.5574 145.2455 146.6988 148.4268 150.8275 154.1309 158.133 165.9671 170.7169 175.2277 179.0848 182.0172 184.0557 185.3761 186.1208 186.5239 187.0391 187.9565 189.3491 190.8533 191.966 192.2406 192.0675 191.8578 192.2719 195.3346 204.7915 221.166 239.6056 -9999 -9999
0 0 0 0 0 0 0 0 0 0 0 0 0 0 0 0 0 0 0 0 0 0 0 0 0 0 0 0 0 0 0 0 0 0 0 0 0 0 0 0 0 0 0 0 0 0 0 0 0 0 0 0 0 0 0 0 0 0 0 0 0 0 0 0 0 0 0 0 0 0 0 0 0 0 0 0 0 0 0 0 0 0 0 0 0 0 0 0 0 0 0 0 0 0 0 0 0 0 0 0 0 0 0 0 0 0 0 0 0 0 0 0 0 0 0 0 0 0 0 0 0 0 0 0 0 0 0 0 0 0 0 0 0 0 0 0 0 0 0 0 0 0 0 0 0 0 0 0 0 0 0 0 0 0 0 0 0 0 0 0 0 0 0 0 0 0 0 0 0 0 0 0 0 0 0 0 0 0 0 0 0 0 0 0 0 0 0 0 0 0 0 0 0 0 0 0 0 0 0 0 0 0 0 0 0 0 0 0 0 0 0 0 0 0 0 0 0 0 0 0 0 0 0 0.1997882 0.5940229 1.031023 1.268638 1.3108 1.312336 1.378264 1.487514 1.596764 1.64042 1.64042 1.689706 1.766822 1.837367 1.858174 1.830954 1.802363 1.824021 1.884746 1.945464 1.968504 1.968504 1.968504 1.968504 1.968504 1.968504 1.968504 1.968504 1.968504 1.968504 1.968504 1.968504 1.960454 1.958519 1.961808 1.967153 1.968504 1.968504 1.968504 1.968504 1.960703 1.886858 1.774319 1.675415 1.655985 1.687394 1.705966 1.691226 1.633326 1.558473 1.531059 1.49575 1.474205 1.413513 1.307553 1.165227 1.029967 0.984252 0.984252 0.8139009 0.5147566 0.3927158 0.328084 0.328084 0.328084 0.5258794 0.8536291 1.181378 1.314806 1.37865 1.484611 1.590571 1.636766 1.64042 1.64042 1.64042 1.691992 1.773836 1.866075 1.923249 1.953924 1.968504 1.968504 1.968504 1.968504 1.968504 1.968504 1.968504 1.968504 1.968504 1.968504 1.968504 1.968504 1.968504 1.979549 2.019586 2.069386 2.077865 2.021128 1.914476 1.806781 1.694219 1.642573 1.64322 1.71239 1.753181 1.742909 1.679132 1.575995 1.479385 1.382278 1.340408 1.32535 1.312336 1.312336 1.248692 1.139442 1.030192 0.984252 0.7946584 0.4669093 0.1391601 0 0 0.5637587 1.672063 2.998643 3.982755 4.733763 5.379393 6.013877 6.646095 7.284887 7.935482 8.590981 9.246478 9.898801 10.54443 11.19006 11.83569 12.48132 13.12695 13.77258 14.41821 15.06384 15.70947 16.35509 17.00072 17.64635 18.29198 18.90174 19.52428 20.1732 20.85215 21.55462 22.29179 23.04996 23.7682 24.49286 25.37178 26.40707 27.89999 28.9547 29.93137 30.90803 32.07106 33.56152 35.45038 37.78237 40.55726 43.63532 46.65966 49.20464 50.9235 51.82309 52.17466 52.0731 51.65004 50.99052 50.4243 50.10329 50.2979 51.55148 54.13682 57.95693 62.45706 67.23704 72.02501 76.48816 80.34737 83.41989 85.76565 87.54118 88.86256 86.55807 87.78591 88.79845 89.62061 90.37618 91.17709 91.94442 92.64891 93.2736 93.85204 94.42756 94.93179 95.43958 95.99476 96.61266 97.2764 98.0592 99.43764 102.171 106.7886 113.1447 120.5082 127.9511 134.8435 140.4014 144.2113 146.4619 147.8962 149.2812 151.104 153.6846 157.1839 161.3759 170.1798 175.2046 180.0465 184.1539 187.1918 189.1375 190.1183 190.4684 190.569 190.7916 191.5052 193.047 195.1292 196.9108 197.683 197.2975 195.7317 193.8657 192.9777 196.4233 207.5271 225.0211 -9999 -9999
0 0 0 0 0 0 0 0 0 0 0 0 0 0 0 0 0 0 0 0 0 0 0 0 0 0 0 0 0 0 0 0 0 0 0 0 0 0 0 0 0 0 0 0 0 0 0 0 0 0 0 0 0 0 0 0 0 0 0 0 0 0 0 0 0 0 0 0 0 0 0 0 0 0 0 0 0 0 0 0 0 0 0 0 0 0 0 0 0 0 0 0 0 0 0 0 0 0 0 0 0 0 0 0 0 0 0 0 0 0 0 0 0 0 0 0 0 0 0 0 0 0 0 0 0 0 0 0 0 0 0 0 0 0 0 0 0 0 0 0 0 0 0 0 0 0 0 0 0 0 0 0 0 0 0 0 0 0 0 0 0 0 0 0 0 0 0 0 0 0 0 0 0 0 0 0 0 0 0 0 0 0 0 0 0 0 0 0 0 0 0 0 0 0 0 0 0 0 0 0 0 0 0 0 0 0 0 0 0 0 0 0 0 0 0 0 0 0 0 0 0 0 0 0.2096531 0.6071761 1.044176 1.272525 1.312336 1.377045 1.480338 1.5863 1.634088 1.64042 1.694268 1.791421 1.897382 1.955931 1.968504 1.90029 1.79104 1.710857 1.721523 1.78013 1.81028 1.820147 1.858479 1.909149 1.953247 1.968504 1.968504 1.968504 1.889545 1.899412 1.909279 1.919146 1.867783 1.839393 1.85015 1.925121 1.968501 2.035484 2.071295 2.068006 2.004261 1.958192 1.936422 1.90808 1.837739 1.750239 1.66931 1.594953 1.57052 1.547338 1.531059 1.500616 1.44348 1.387308 1.264537 1.135928 1.026678 0.984252 0.9391 0.7836113 0.5716897 0.328084 0.328084 0.328084 0.328084 0.5357454 0.863495 1.191245 1.381222 1.490472 1.59715 1.638233 1.64042 1.64042 1.698826 1.787026 1.882524 1.9332 1.957519 1.968504 1.968504 1.968504 1.968504 2.007857 2.066514 2.118599 2.13099 2.121122 2.111254 2.101386 2.091519 2.08165 2.05094 2.011959 2.081631 2.041845 2.087671 2.102338 2.083268 2.009146 1.968504 1.902959 1.793069 1.680807 1.643634 1.648867 1.652156 1.646127 1.62908 1.551213 1.438673 1.343498 1.312336 1.312336 1.312336 1.245402 1.136152 1.026903 0.984252 0.818144 0.5086138 0.1775751 0.01777732 0 0.6165248 1.764515 3.12421 4.088134 5.005813 5.661312 6.259898 6.819347 7.372224 7.981317 8.626946 9.272576 9.921716 10.57721 11.23271 11.88821 12.54371 13.19921 13.90906 14.59537 15.29773 15.97837 16.67326 17.34821 17.99384 18.63947 19.21878 19.78574 20.37786 21.07407 21.79916 22.53332 23.29148 24.04965 24.82925 25.72914 26.76772 28.07532 29.09005 30.08317 31.08622 32.21795 33.6239 35.42297 37.66644 40.29321 43.30746 46.35434 48.91434 50.50104 51.1195 51.1571 50.86827 50.43812 49.84352 49.32349 48.93502 48.8728 49.53839 51.46995 54.90276 59.2839 63.96477 68.47562 72.58425 76.1647 79.11554 81.52657 83.48245 85.12481 83.53377 85.03173 86.41088 87.53618 88.56074 89.60137 90.63543 91.60002 92.44098 93.22501 93.93307 94.58746 95.23412 95.87797 96.5271 97.23507 98.10413 99.67799 102.7185 107.6795 114.2499 121.7711 129.6083 137.1286 143.1627 147.1314 149.2943 150.7741 152.4287 154.5852 157.4401 161.074 165.3698 174.804 180.1226 185.1499 189.3623 192.4088 194.3889 195.4524 195.7673 195.3583 194.7477 194.8881 196.4415 199.575 203.0824 205.5238 205.7771 203.5468 199.4408 195.3125 193.4795 198.0178 210.6207 -9999 -9999
0 0 0 0 0 0 0 0 0 0 0 0 0 0 0 0 0 0 0 0 0 0 0 0 0 0 0 0 0 0 0 0 0 0 0 0 0 0 0 0 0 0 0 0 0 0 0 0 0 0 0 0 0 0 0 0 0 0 0 0 0 0 0 0 0 0 0 0 0 0 0 0 0 0 0 0 0 0 0 0 0 0 0 0 0 0 0 0 0 0 0 0 0 0 0 0 0 0 0 0 0 0 0 0 0 0 0 0 0 0 0 0 0 0 0 0 0 0 0 0 0 0 0 0 0 0 0 0 0 0 0 0 0 0 0 0 0 0 0 0 0 0 0 0 0 0 0 0 0 0 0 0 0 0 0 0 0 0 0 0 0 0 0 0 0 0 0 0 0 0 0 0 0 0 0 0 0 0 0 0 0 0 0 0 0 0 0 0 0 0 0 0 0 0 0 0 0 0 0 0 0 0 0 0 0 0 0 0 0 0 0 0 0 0 0 0 0 0 0 0 0 0 0 0.219518 0.6203293 1.057329 1.275813 1.312336 1.384952 1.494202 1.603452 1.64042 1.699028 1.798 1.903961 1.958067 1.968504 1.968504 1.897001 1.787751 1.678501 1.64042 1.64042 1.64042 1.64042 1.681361 1.750017 1.825244 1.859944 1.869811 1.879678 1.64042 1.64042 1.64042 1.64042 1.64042 1.64042 1.708792 1.819158 1.931629 2.040845 2.145682 2.177257 2.101962 2.000301 1.968504 1.968504 1.951219 1.867351 1.754812 1.642273 1.555466 1.487882 1.42687 1.411213 1.383719 1.333936 1.212937 1.085873 1.00783 0.984252 0.8442506 0.6257508 0.4072511 0.328084 0.328084 0.328084 0.328084 0.5456144 0.873364 1.201114 1.384512 1.493762 1.603011 1.64042 1.64042 1.70382 1.805449 1.911409 1.960698 1.968504 1.968504 2.018507 2.090085 2.15509 2.170128 2.189556 2.230491 2.277998 2.296588 2.296588 2.296588 2.296588 2.296588 2.296588 2.248896 2.16855 2.296588 2.296588 2.282666 2.218328 2.115106 2.013217 1.971207 1.968504 1.968504 1.892983 1.780597 1.675466 1.64042 1.579147 1.549485 1.538697 1.514875 1.432094 1.339933 1.264353 1.195346 1.106294 1.045051 1.001539 0.984252 0.8446974 0.5893147 0.3075935 0.1581852 0.3093629 1.050991 2.215913 3.465574 4.350315 5.100657 5.746287 6.391917 7.037546 7.683177 8.328807 8.974436 9.620066 10.26569 10.91132 11.55696 12.20258 12.84821 13.49384 14.15302 14.80941 15.47606 16.13813 16.81223 17.48002 18.13552 18.79101 19.41638 20.01921 20.61547 21.31067 22.06554 22.82042 23.54865 24.29118 25.11806 26.03375 27.03362 27.982 28.92655 29.89993 30.93429 32.07773 33.40195 35.0242 36.98527 39.43333 42.30213 45.2908 47.72668 49.21969 49.79322 49.88823 49.7396 49.44664 49.0272 48.58807 48.26313 48.28331 48.92735 50.63327 53.60186 57.50371 61.77151 65.90077 69.66026 72.96787 75.77282 78.17601 80.20424 81.93919 80.85002 82.57954 84.2325 85.72837 87.01731 88.19527 89.33987 90.53609 91.69176 92.66145 93.47644 94.18198 94.91222 95.67168 96.48177 97.54694 98.96113 101.1147 104.5116 109.4541 115.7759 123.0487 130.9273 138.793 145.2918 149.6873 152.1598 153.9308 155.8198 158.2301 161.2833 165.0964 169.6463 179.6804 185.2449 190.3473 194.6389 197.8213 199.9657 201.1338 201.3755 200.8223 199.9591 199.9492 202.0694 206.7295 212.2742 216.4051 217.5004 215.3007 209.848 202.5091 196.1964 194.6713 200.9388 -9999 -9999
0 0 0 0 0 0 0 0 0 0 0 0 0 0 0 0 0 0 0 0 0 0 0 0 0 0 0 0 0 0 0 0 0 0 0 0 0 0 0 0 0 0 0 0 0 0 0 0 0 0 0 0 0 0 0 0 0 0 0 0 0 0 0 0 0 0 0 0 0 0 0 0 0 0 0 0 0 0 0 0 0 0 0 0 0 0 0 0 0 0 0 0 0 0 0 0 0 0 0 0 0 0 0 0 0 0 0 0 0 0 0 0 0 0 0 0 0 0 0 0 0 0 0 0 0 0 0 0 0 0 0 0 0 0 0 0 0 0 0 0 0 0 0 0 0 0 0 0 0 0 0 0 0 0 0 0 0 0 0 0 0 0 0 0 0 0 0 0 0 0 0 0 0 0 0 0 0 0 0 0 0 0 0 0 0 0 0 0 0 0 0 0 0 0 0 0 0 0 0 0 0 0 0 0 0 0 0 0 0 0 0 0 0 0 0 0 0 0 0 0 0 0 0.01712203 0.2410099 0.6391317 1.069552 1.279102 1.38542 1.490095 1.596057 1.636083 1.64042 1.715879 1.825129 1.934379 1.968504 1.968504 1.919016 1.824747 1.718786 1.655364 1.64042 1.64042 1.64042 1.64042 1.64042 1.64042 1.64042 1.64042 1.64042 1.64042 1.562126 1.571993 1.58186 1.591727 1.601594 1.618176 1.632113 1.713198 1.825737 1.938276 2.050815 2.156403 2.244112 2.188085 2.085951 1.995594 1.968504 1.948128 1.860772 1.748233 1.635694 1.523155 1.410616 1.331637 1.312336 1.274435 1.179182 1.066643 0.9984671 0.984252 0.8376713 0.6191715 0.4006717 0.328084 0.328084 0.328084 0.328084 0.5554842 0.8832338 1.215871 1.391586 1.497546 1.606301 1.711372 1.808999 1.908727 1.947511 1.962403 1.968504 2.025387 2.103318 2.196671 2.249404 2.283991 2.296588 2.296588 2.296588 2.296588 2.296588 2.296588 2.296588 2.296588 2.296588 2.296588 2.296588 2.296588 2.296588 2.296588 2.220955 2.187227 2.121716 2.088932 2.010455 1.969911 1.968504 1.967073 1.888383 1.775844 1.671453 1.630046 1.560181 1.471681 1.389754 1.349937 1.322628 1.288748 1.200437 1.087898 1.005463 0.984252 0.9067252 0.7288373 0.5169168 0.369022 0.328084 0.8639755 1.809711 2.967151 3.809398 4.455028 5.373375 6.028874 6.684371 7.339869 7.995368 8.650867 9.306365 9.961863 10.61318 11.25881 11.90444 12.55007 13.1957 13.84133 14.48696 15.13259 15.77822 16.42385 17.06948 17.71511 18.36074 19.00637 19.65199 20.29762 20.94325 21.62691 22.33527 23.08027 23.79735 24.53271 25.33945 26.19799 27.08775 28.31053 29.28391 30.25729 31.23066 32.27855 33.43558 34.84233 36.50784 38.56086 40.94104 43.49383 45.65041 47.1326 47.91999 48.31736 48.47675 48.4713 48.337 48.14679 48.03426 48.29309 49.12329 50.84052 53.46994 56.8435 60.53993 64.16096 67.44482 70.37471 72.95856 75.24376 77.24988 79.07725 78.48891 80.30276 82.02882 83.74097 85.43763 86.99435 88.39758 89.7579 91.03349 92.17698 93.19818 94.1638 95.05196 96.02823 97.12135 98.58007 100.4789 103.0982 106.7178 111.4938 117.3941 124.2334 131.8563 139.5934 146.2102 151.057 154.124 156.3901 158.5768 161.2579 164.7491 169.0712 174.1495 184.5144 190.251 195.5265 200.3366 204.7648 208.7589 211.8737 213.7263 214.3164 214.0415 214.0008 215.635 220.403 226.9884 232.5442 234.618 232.5608 226.351 216.6336 205.9333 198.6116 198.4518 -9999 -9999
0 0 0 0 0 0 0 0 0 0 0 0 0 0 0 0 0 0 0 0 0 0 0 0 0 0 0 0 0 0 0 0 0 0 0 0 0 0 0 0 0 0 0 0 0 0 0 0 0 0 0 0 0 0 0 0 0 0 0 0 0 0 0 0 0 0 0 0 0 0 0 0 0 0 0 0 0 0 0 0 0 0 0 0 0 0 0 0 0 0 0 0 0 0 0 0 0 0 0 0 0 0 0 0 0 0 0 0 0 0 0 0 0 0 0 0 0 0 0 0 0 0 0 0 0 0 0 0 0 0 0 0 0 0 0 0 0 0 0 0 0 0 0 0 0 0 0 0 0 0 0 0 0 0 0 0 0 0 0 0 0 0 0 0 0 0 0 0 0 0 0 0 0 0 0 0 0 0 0 0 0 0 0 0 0 0 0 0 0 0 0 0 0 0 0 0 0 0 0 0 0 0 0 0 0 0 0 0 0 0 0 0 0 0 0 0 0 0 0 0 0 0 0.159724 0.378224 0.7560027 1.033947 1.252732 1.391641 1.500891 1.610141 1.64042 1.64042 1.719169 1.828419 1.937669 1.912059 1.839062 1.746025 1.643353 1.540681 1.47153 1.463457 1.473324 1.483191 1.493058 1.502924 1.512791 1.522658 1.532525 1.542392 1.552259 1.312336 1.312336 1.312336 1.312336 1.312336 1.384778 1.490169 1.602132 1.640982 1.726571 1.842398 1.958226 2.074054 2.165813 2.236841 2.233182 2.157566 2.070696 1.966731 1.854192 1.741653 1.629114 1.516575 1.404036 1.3289 1.274867 1.185478 1.079517 1.003933 0.9282 0.7577402 0.5458187 0.3759258 0.328084 0.328084 0.328084 0.3524596 0.5826416 0.9033542 1.296641 1.499425 1.609703 1.716046 1.822007 1.927968 1.964864 1.968504 1.968504 2.030247 2.129687 2.235647 2.287125 2.296588 2.296588 2.296588 2.296588 2.296588 2.296588 2.296588 2.296588 2.296588 2.296588 2.296588 2.296588 2.296588 2.296588 2.276757 2.25505 2.176019 2.139524 2.144493 2.154361 2.091253 1.990747 1.965552 1.968504 1.964586 1.953467 1.866556 1.761639 1.653548 1.60294 1.512603 1.416918 1.335187 1.260029 1.164445 1.058485 0.9976842 0.984252 0.8313149 0.6128153 0.3943159 0.328084 0.328084 0.9353687 1.960965 3.204837 4.062379 4.717877 5.467552 6.113182 6.758811 7.40444 8.050071 8.6957 9.34133 9.98696 10.6371 11.36683 12.12117 12.86894 13.54319 14.18882 14.83445 15.48008 16.12571 16.77134 17.41697 18.0626 18.70823 19.35386 19.99949 20.64511 21.29074 21.93637 22.582 23.27189 23.98702 24.73546 25.52135 26.38789 27.33715 28.66789 29.64127 30.61465 31.59916 32.65155 33.80858 35.06656 36.44157 37.94278 39.52318 41.23376 42.77542 44.18779 45.30789 46.20081 46.81013 47.22481 47.55918 47.85252 48.13875 48.69294 49.73569 51.4842 53.93412 56.85225 59.99337 63.052 65.90932 68.49612 70.79339 72.82586 74.68577 76.55402 76.38152 78.36961 80.22903 82.02049 83.74819 85.44698 86.99396 88.53539 90.02171 91.53875 92.9851 94.30302 95.49407 96.65582 98.02013 99.77444 102.0735 105.0283 108.7626 113.3544 118.7668 125.0121 132.036 139.1443 145.3559 150.1906 153.8721 156.9599 159.9418 163.3758 167.6926 172.8116 178.5519 188.3461 194.2235 200.3772 206.5788 212.8907 219.5738 226.6852 233.6127 238.3782 239.1304 237.0819 235.8382 238.3288 244.1953 250.0291 252.9134 251.7846 246.4093 236.6024 223.5436 211.2816 204.5459 -9999 -9999
0 0 0 0 0 0 0 0 0 0 0 0 0 0 0 0 0 0 0 0 0 0 0 0 0 0 0 0 0 0 0 0 0 0 0 0 0 0 0 0 0 0 0 0 0 0 0 0 0 0 0 0 0 0 0 0 0 0 0 0 0 0 0 0 0 0 0 0 0 0 0 0 0 0 0 0 0 0 0 0 0 0 0 0 0 0 0 0 0 0 0 0 0 0 0 0 0 0 0 0 0 0 0 0 0 0 0 0 0 0 0 0 0 0 0 0 0 0 0 0 0 0 0 0 0 0 0 0 0 0 0 0 0 0 0 0 0 0 0 0 0 0 0 0 0 0 0 0 0 0 0 0 0 0 0 0 0 0 0 0 0 0 0 0 0 0 0 0 0 0 0 0 0 0 0 0 0 0 0 0 0 0 0 0 0 0 0 0 0 0 0 0 0 0 0 0 0 0 0 0 0 0 0 0 0 0 0 0 0 0 0 0 0 0 0 0 0 0 0 0 0 0 0.1663042 0.391421 0.7704744 1.040527 1.259027 1.394931 1.504182 1.613431 1.64042 1.64042 1.656088 1.746522 1.797791 1.788311 1.646034 1.524237 1.421565 1.367527 1.324512 1.312336 1.312336 1.312336 1.312336 1.312336 1.312336 1.312336 1.312336 1.312336 1.312336 1.312336 1.312336 1.312336 1.312336 1.312336 1.312336 1.312336 1.312336 1.395642 1.511362 1.550358 1.643961 1.763078 2.020479 2.179691 2.274737 2.215158 2.105908 1.996658 1.887408 1.778158 1.668908 1.559658 1.450408 1.299698 1.178899 1.072938 1.00103 0.984252 0.8242885 0.6057888 0.387289 0.328084 0.328084 0.328084 0.328084 0.4930668 0.7115666 1.012335 1.252782 1.472867 1.612721 1.722243 1.831492 1.940742 1.968504 1.968504 1.968504 2.049657 2.158907 2.268157 2.296588 2.296588 2.296588 2.296588 2.296588 2.296588 2.296588 2.296588 2.296588 2.296588 2.296588 2.296588 2.296588 2.296588 2.296588 2.214152 2.104902 1.980082 1.86898 1.834414 1.837456 1.844034 1.768957 1.666286 1.647361 1.657229 1.667097 1.667932 1.659905 1.645307 1.575941 1.475747 1.369786 1.320781 1.23202 1.12277 1.01352 0.984252 0.984252 0.8247352 0.6062357 0.3877362 0.328084 0.328084 0.991568 2.059293 3.338721 4.176292 4.821922 5.740937 6.412455 7.070056 7.722264 8.374473 9.026682 9.682579 10.33153 10.98008 11.62934 12.28559 12.94841 13.60692 14.26241 14.91791 15.57341 16.22891 16.88441 17.5399 18.1954 18.8509 19.5064 20.1619 20.81739 21.47289 22.12839 22.81896 23.48463 24.16707 24.90641 25.76858 26.72113 27.69451 29.02525 29.98217 30.95319 31.99953 33.07566 34.23272 35.35135 36.53125 37.74389 38.96553 40.28731 41.48909 42.71403 43.73148 44.71775 45.6026 46.40737 47.12198 47.73971 48.37533 49.24975 50.54269 52.33808 54.58137 57.00217 59.58948 62.09656 64.56749 66.81221 68.9507 70.84781 72.62833 74.40514 74.59745 76.66872 78.62016 80.38911 82.16932 83.96728 85.75866 87.46313 89.13218 90.79453 92.4454 94.07479 95.60284 97.08171 98.77959 100.9272 103.6681 106.9799 110.9281 115.289 120.2348 125.558 131.5809 137.6471 143.3161 148.0328 152.2074 156.1732 160.3632 165.0071 170.3898 176.3381 182.3864 192.2265 198.5041 205.8849 213.5848 221.6701 230.496 240.1072 248.7374 253.9916 254.1974 251.5204 250.04 253.9383 262.3285 271.0606 275.4565 274.1339 267.6879 257.0302 242.6832 227.1895 216.0605 -9999 -9999
0 0 0 0 0 0 0 0 0 0 0 0 0 0 0 0 0 0 0 0 0 0 0 0 0 0 0 0 0 0 0 0 0 0 0 0 0 0 0 0 0 0 0 0 0 0 0 0 0 0 0 0 0 0 0 0 0 0 0 0 0 0 0 0 0 0 0 0 0 0 0 0 0 0 0 0 0 0 0 0 0 0 0 0 0 0 0 0 0 0 0 0 0 0 0 0 0 0 0 0 0 0 0 0 0 0 0 0 0 0 0 0 0 0 0 0 0 0 0 0 0 0 0 0 0 0 0 0 0 0 0 0 0 0 0 0 0 0 0 0 0 0 0 0 0 0 0 0 0 0 0 0 0 0 0 0 0 0 0 0 0 0 0 0 0 0 0 0 0 0 0 0 0 0 0 0 0 0 0 0 0 0 0 0 0 0 0 0 0 0 0 0 0 0 0 0 0 0 0 0 0 0 0 0 0 0 0 0 0 0 0 0 0 0 0 0 0 0 0 0 0 0 0.182283 0.486317 0.8107782 1.045944 1.180605 1.293414 1.326329 1.343318 1.355596 1.365463 1.444275 1.555488 1.649856 1.610277 1.429599 1.2467 1.131146 1.116312 1.126179 1.136046 1.145913 1.155779 1.165646 1.175513 1.217796 1.264133 1.3039 1.312336 1.312336 1.23505 1.244917 1.254784 1.264651 1.274518 1.284385 1.294252 1.304119 1.312767 1.319176 1.326592 1.341293 1.43862 1.65601 1.875688 2.014694 2.028281 1.944198 1.841526 1.738854 1.689618 1.599564 1.493603 1.387643 1.240922 1.119257 1.010007 0.984252 0.984252 0.8177087 0.5992089 0.3807091 0.328084 0.328084 0.328084 0.328084 0.4996468 0.7181465 1.022205 1.17906 1.370954 1.506637 1.619301 1.73184 1.767025 1.850478 1.875429 1.948138 1.986159 2.07899 2.129983 2.14333 2.093578 2.086436 2.096304 2.106172 2.116039 2.125907 2.135775 2.145643 2.191246 2.242306 2.286795 2.296588 2.296588 2.296588 2.123452 2.029944 1.845059 1.721819 1.622437 1.616582 1.625535 1.550394 1.445361 1.343705 1.32948 1.41689 1.521185 1.618909 1.57078 1.469167 1.363207 1.319046 1.312336 1.22873 1.11948 1.01023 0.984252 0.984252 0.8181555 0.599656 0.3811565 0.328084 0.3952127 1.090717 2.247019 3.567342 4.445657 5.092431 5.686906 6.437383 7.127001 7.792368 8.457734 9.129405 9.877872 10.48153 10.9463 11.23439 11.65494 12.43697 13.37167 14.23948 14.93765 15.65779 16.26792 16.84469 17.42803 18.12653 18.90593 19.59101 20.24322 20.85137 21.49263 22.18711 22.93437 23.64755 24.38977 25.17684 26.10511 27.07849 28.05187 29.54258 30.44228 31.38412 32.35595 33.34694 34.32238 35.25263 36.24699 37.511 39.57479 41.62443 42.88594 43.06808 43.16002 43.69255 44.67069 45.86099 46.98295 47.96948 48.76777 49.76713 51.12694 52.91302 54.88899 56.90791 59.02859 61.11427 63.19235 65.15852 67.23444 69.14188 70.91235 72.62911 73.61378 75.47102 77.32826 79.18551 81.05259 82.91682 84.77927 86.54262 88.28165 90.13376 91.99847 93.7746 95.50951 97.22882 99.38653 102.0062 105.3313 109.0513 113.147 117.3727 121.8973 126.5126 131.4698 136.3637 141.281 145.7688 150.3295 155.1869 160.7263 166.6408 173.0209 179.7361 186.1026 196.3207 203.5712 212.2162 221.1869 230.016 239.0639 247.8228 255.8118 261.9685 265.2056 266.5614 269.0982 276.6178 286.2877 294.2755 297.1638 295.0024 286.5853 273.1206 256.5276 239.9442 227.5727 -9999 -9999
0 0 0 0 0 0 0 0 0 0 0 0 0 0 0 0 0 0 0 0 0 0 0 0 0 0 0 0 0 0 0 0 0 0 0 0 0 0 0 0 0 0 0 0 0 0 0 0 0 0 0 0 0 0 0 0 0 0 0 0 0 0 0 0 0 0 0 0 0 0 0 0 0 0 0 0 0 0 0 0 0 0 0 0 0 0 0 0 0 0 0 0 0 0 0 0 0 0 0 0 0 0 0 0 0 0 0 0 0 0 0 0 0 0 0 0 0 0 0 0 0 0 0 0 0 0 0 0 0 0 0 0 0 0 0 0 0 0 0 0 0 0 0 0 0 0 0 0 0 0 0 0 0 0 0 0 0 0 0 0 0 0 0 0 0 0 0 0 0 0 0 0 0 0 0 0 0 0 0 0 0 0 0 0 0 0 0 0 0 0 0 0 0 0 0 0 0 0 0 0 0 0 0 0 0 0 0 0 0 0 0 0 0 0 0 0 0 0 0 0 0 0 0.2691968 0.5969469 0.9246969 0.984252 1.074916 1.187455 1.293515 1.312336 1.312336 1.312336 1.329442 1.356481 1.390092 1.380259 1.265067 1.122227 1.005663 0.984252 0.984252 0.984252 0.984252 0.984252 0.984252 0.984252 1.037712 1.110702 1.190264 1.215317 1.225183 0.984252 0.984252 0.984252 0.984252 0.984252 0.984252 0.984252 0.984252 0.9862381 0.9961051 1.005972 1.09588 1.286985 1.506132 1.656144 1.706875 1.721343 1.706886 1.619737 1.517065 1.446525 1.407873 1.368449 1.275103 1.169142 1.063182 0.9965495 0.984252 0.984252 0.8111287 0.592629 0.3741292 0.328084 0.328084 0.328084 0.328084 0.5062266 0.7247264 1.024019 1.175724 1.288263 1.312327 1.407221 1.523049 1.63096 1.664085 1.673216 1.695608 1.709349 1.740261 1.758639 1.771796 1.756113 1.758687 1.768555 1.778422 1.78829 1.798158 1.808026 1.817894 1.877094 1.95523 2.039937 2.07431 2.120575 2.168163 1.723807 1.670679 1.523512 1.421926 1.330483 1.392204 1.414366 1.417655 1.333428 1.312831 1.312336 1.319653 1.334686 1.35629 1.354106 1.339093 1.317509 1.312336 1.2509 1.151509 1.045548 0.9929673 0.984252 0.984252 0.8115758 0.5930763 0.3745769 0.328084 0.4998674 1.147267 2.281218 3.469923 4.39335 5.039442 5.378895 6.115534 6.801089 7.469746 8.147518 8.903044 9.67766 10.36454 10.851 11.36649 11.81569 12.59524 13.39939 14.32979 15.11497 15.80162 16.37223 16.91519 17.5762 18.31656 19.15772 19.84952 20.49515 21.05483 21.72013 22.46 23.21158 23.92797 24.70561 25.55163 26.49763 27.4925 28.51077 30.56763 31.62351 32.68525 33.86985 35.36504 37.00654 38.44512 40.35435 42.80748 45.68837 47.54274 47.80854 46.752 45.44668 44.99596 45.44076 46.51909 47.57306 48.45449 49.11451 49.99158 51.26054 53.01258 54.91917 56.87608 58.79559 60.6239 62.39918 64.15773 66.13656 68.07166 69.96874 71.77471 73.92323 75.7527 77.57703 79.40139 81.33328 83.27293 85.28561 87.05552 88.68063 90.39927 92.14703 93.97153 95.65803 97.3826 99.57398 102.6406 106.5681 110.8831 115.1826 119.4038 123.6168 127.798 131.9775 136.0676 140.2412 144.3405 148.965 154.5271 161.2364 168.3852 175.5814 182.8394 189.5865 200.1332 208.7416 218.3989 227.6326 236.7178 245.4244 253.7566 261.1664 267.4243 272.4729 276.8598 283.2671 292.2295 302.2742 309.2345 311.681 309.4656 300.8921 286.4484 268.0845 251.1104 238.078 -9999 -9999
0 0 0 0 0 0 0 0 0 0 0 0 0 0 0 0 0 0 0 0 0 0 0 0 0 0 0 0 0 0 0 0 0 0 0 0 0 0 0 0 0 0 0 0 0 0 0 0 0 0 0 0 0 0 0 0 0 0 0 0 0 0 0 0 0 0 0 0 0 0 0 0 0 0 0 0 0 0 0 0 0 0 0 0 0 0 0 0 0 0 0 0 0 0 0 0 0 0 0 0 0 0 0 0 0 0 0 0 0 0 0 0 0 0 0 0 0 0 0 0 0 0 0 0 0 0 0 0 0 0 0 0 0 0 0 0 0 0 0 0 0 0 0 0 0 0 0 0 0 0 0 0 0 0 0 0 0 0 0 0 0 0 0 0 0 0 0 0 0 0 0 0 0 0 0 0 0 0 0 0 0 0 0 0 0 0 0 0 0 0 0 0 0 0 0 0 0 0 0 0 0 0 0 0 0 0 0 0 0 0 0 0 0 0 0 0 0 0 0 0 0 0 0.2790671 0.6068171 0.9345672 0.984252 0.9855127 0.99307 1.007198 1.018319 1.028186 1.038052 1.047919 1.057786 1.067652 1.077519 1.058634 1.028121 0.9910381 0.984252 0.984252 0.984252 0.984252 0.984252 0.984252 0.984252 0.984252 0.984252 0.984252 0.984252 0.984252 0.984252 0.984252 0.984252 0.9975424 0.9966338 0.993345 0.9851514 0.984252 0.984252 0.984252 0.984252 0.9931899 1.101614 1.234114 1.356022 1.383727 1.393594 1.403461 1.385293 1.355505 1.261724 1.191883 1.135424 1.093104 1.046905 0.9941338 0.984252 0.984252 0.913825 0.7255141 0.5135925 0.3556625 0.328084 0.328084 0.328084 0.328084 0.5128065 0.7313063 0.949806 1.070797 1.179593 1.294789 1.315147 1.32454 1.340505 1.351997 1.361865 1.371733 1.3816 1.391468 1.401335 1.411203 1.421071 1.430938 1.440806 1.450673 1.460541 1.470409 1.480277 1.490144 1.500012 1.50988 1.519748 1.529615 1.601267 1.692744 1.231469 1.241337 1.251205 1.261073 1.270941 1.280809 1.290677 1.300545 1.310413 1.312336 1.312336 1.312336 1.312336 1.312336 1.312336 1.240254 1.159378 1.085074 1.054379 1.026026 0.9911003 0.984252 0.984252 0.984252 0.8049961 0.5864967 0.3679972 0.328084 0.4703907 1.096038 2.096032 3.191376 4.027536 4.713529 5.042604 5.732845 6.401617 7.07911 7.834915 8.606242 9.37371 10.05653 10.62937 11.09542 11.62679 12.3691 13.30168 14.20784 15.00138 15.75212 16.40248 17.09101 17.77676 18.5833 19.38821 20.17347 20.89277 21.55187 22.23335 22.92961 23.63243 24.32597 25.2216 26.1537 27.13275 28.15578 29.30409 31.43098 32.70366 33.97936 35.50869 37.67644 40.37017 43.19867 46.11867 48.69356 50.81362 51.7454 51.53304 50.29528 48.71367 47.71061 47.44767 47.82602 48.30895 48.76553 49.23478 49.81149 50.89778 52.649 54.90122 57.24763 59.30889 61.16014 62.84236 64.57609 66.43764 68.33161 70.23215 72.07485 74.95973 76.82994 78.7157 80.61567 82.72968 84.78031 86.79348 88.45359 90.12663 91.74493 93.35075 94.97171 96.42775 97.79608 99.62317 102.8192 107.4064 112.4694 117.1218 121.4484 125.5747 129.5248 133.2069 136.7686 140.4695 144.1371 148.233 153.7336 161.0583 169.3804 177.2643 184.9729 192.0726 201.5371 211.2575 221.8296 231.7782 241.279 250.0377 258.0909 265.0679 271.3929 276.7132 281.3026 287.8694 297.4344 308.459 316.0782 318.7874 316.5386 309.3254 296.4287 279.3728 262.9578 249.3465 -9999 -9999
0 0 0 0 0 0 0 0 0 0 0 0 0 0 0 0 0 0 0 0 0 0 0 0 0 0 0 0 0 0 0 0 0 0 0 0 0 0 0 0 0 0 0 0 0 0 0 0 0 0 0 0 0 0 0 0 0 0 0 0 0 0 0 0 0 0 0 0 0 0 0 0 0 0 0 0 0 0 0 0 0 0 0 0 0 0 0 0 0 0 0 0 0 0 0 0 0 0 0 0 0 0 0 0 0 0 0 0 0 0 0 0 0 0 0 0 0 0 0 0 0 0 0 0 0 0 0 0 0 0 0 0 0 0 0 0 0 0 0 0 0 0 0 0 0 0 0 0 0 0 0 0 0 0 0 0 0 0 0 0 0 0 0 0 0 0 0 0 0 0 0 0 0 0 0 0 0 0 0 0 0 0 0 0 0 0 0 0 0 0 0 0 0 0 0 0 0 0 0 0 0 0 0 0 0 0 0 0 0 0 0 0 0 0 0 0 0 0 0 0 0 0.03925991 0.3235986 0.6414822 0.9462491 0.984252 0.984252 0.984252 0.984252 0.984252 0.984252 0.984252 0.984252 0.984252 0.984252 0.984252 0.984252 0.984252 0.984252 0.984252 0.984252 0.984252 0.984252 0.984252 0.984252 0.984252 0.984252 0.984252 0.984252 0.984252 0.984252 1.213083 1.163998 1.118463 1.161876 1.133437 1.104819 0.9986195 0.984252 0.984252 0.984252 0.984252 0.984252 0.9964547 1.016626 1.043369 1.055979 1.065846 1.075713 1.08558 1.095447 1.070575 1.034012 0.9908779 0.984252 0.984252 0.984252 0.984252 0.984252 0.797746 0.5792462 0.3607465 0.328084 0.328084 0.328084 0.328084 0.328084 0.5193864 0.7378861 0.9563857 0.984252 0.984252 0.9847561 0.9946464 1.004514 1.014381 1.024249 1.034116 1.043984 1.053851 1.063719 1.073586 1.083454 1.093322 1.103189 1.113057 1.122924 1.132792 1.14266 1.152528 1.162395 1.172263 1.182131 1.191998 1.201866 1.211734 1.221602 0.984252 0.984252 0.984252 0.984252 0.984252 0.984252 0.984252 0.984252 0.984252 0.9925311 1.002399 1.012267 1.022135 1.032003 1.041871 1.032419 1.013704 0.9884159 0.984252 0.984252 0.984252 0.984252 0.984252 0.8812356 0.6838936 0.471973 0.3459694 0.328084 0.4578476 0.9979488 1.86054 2.844229 3.634882 4.345791 4.639242 5.413858 6.093606 6.853729 7.628345 8.402962 9.083156 9.748523 10.31969 10.96069 11.61056 12.44233 13.32439 14.20056 14.98103 15.67379 16.33624 17.08822 17.88984 18.81059 19.6534 20.51127 21.28276 22.03764 22.7463 23.44048 24.12808 24.90119 25.92589 27.02746 28.09976 29.0478 30.1622 32.24403 33.82802 35.68265 37.92677 40.73915 43.88921 46.80182 49.13084 50.72078 51.9544 52.67802 52.64145 51.79954 50.55227 49.5727 48.99066 48.88158 48.86779 48.94394 49.08347 49.42831 50.42199 52.27779 54.90471 57.63835 60.07875 62.17555 64.06246 65.85255 67.6375 69.42901 71.2271 73.05595 75.83552 77.77026 79.88524 82.21539 84.58682 86.78218 88.74309 90.46152 92.05002 93.3632 94.73544 95.88402 96.99662 98.03296 99.76255 103.0784 108.0154 113.5976 118.7396 123.2994 127.4587 131.2661 134.6627 137.8614 141.0477 144.1823 147.4325 152.4532 159.9999 169.3079 178.0257 185.7758 192.9599 203.7034 213.9777 225.0008 235.7398 245.7094 254.4919 262.1502 268.922 275.189 280.4879 285.4154 292.5818 303.9454 316.027 324.454 326.5808 324.0386 316.593 304.7128 288.8967 271.944 257.6463 -9999 -9999
0 0 0 0 0 0 0 0 0 0 0 0 0 0 0 0 0 0 0 0 0 0 0 0 0 0 0 0 0 0 0 0 0 0 0 0 0 0 0 0 0 0 0 0 0 0 0 0 0 0 0 0 0 0 0 0 0 0 0 0 0 0 0 0 0 0 0 0 0 0 0 0 0 0 0 0 0 0 0 0 0 0 0 0 0 0 0 0 0 0 0 0 0 0 0 0 0 0 0 0 0 0 0 0 0 0 0 0 0 0 0 0 0 0 0 0 0 0 0 0 0 0 0 0 0 0 0 0 0 0 0 0 0 0 0 0 0 0 0 0 0 0 0 0 0 0 0 0 0 0 0 0 0 0 0 0 0 0 0 0 0 0 0 0 0 0 0 0 0 0 0 0 0 0 0 0 0 0 0 0 0 0 0 0 0 0 0 0 0 0 0 0 0 0 0 0 0 0 0 0 0 0 0 0 0 0 0 0 0 0 0 0 0 0 0 0 0 0 0 0 0 0.2991417 0.6268917 0.9546417 0.984252 0.984252 0.984252 0.984252 0.984252 0.984252 0.984252 0.984252 0.984252 0.984252 0.984252 0.984252 0.984252 0.984252 0.984252 0.984252 0.984252 0.984252 0.984252 1.122294 1.258715 1.375423 1.361085 1.331484 1.301884 1.272284 1.242684 2.072004 1.937002 1.81591 1.682763 1.455271 1.224317 1.004985 0.984252 0.984252 0.984252 0.984252 0.984252 0.984252 0.984252 0.984252 0.984252 0.984252 0.984252 0.984252 0.984252 0.984252 0.984252 0.984252 0.984252 0.984252 0.984252 0.984252 0.984252 0.7911661 0.5726663 0.3541665 0.328084 0.328084 0.328084 0.328084 0.328084 0.5259663 0.744466 0.9629657 0.984252 0.984252 0.984252 0.984252 0.984252 0.984252 0.984252 0.984252 0.984252 0.984252 0.984252 0.984252 0.984252 0.984252 0.984252 0.984252 0.984252 0.984252 0.984252 0.984252 0.984252 0.984252 0.984252 0.984252 0.984252 0.984252 0.984252 0.984252 0.984252 0.984252 0.984252 0.984252 0.984252 0.984252 0.984252 0.984252 0.984252 0.984252 0.984252 0.984252 0.984252 0.984252 0.984252 0.984252 0.984252 0.984252 0.984252 0.984252 0.984252 0.984252 0.7916135 0.573114 0.3546146 0.328084 0.328084 0.5581279 1.065757 1.767108 2.467575 3.108016 3.864625 4.433523 5.173817 5.838292 6.591836 7.356585 8.121332 8.788368 9.443867 10.10394 10.8583 11.61796 12.39243 13.17541 13.96497 14.81912 15.5782 16.38959 17.22562 18.15476 19.18648 20.12846 21.05077 21.81695 22.61264 23.36153 24.10325 24.84497 25.72103 26.801 27.96437 29.01122 29.91036 30.94854 33.49404 35.25696 37.46651 40.11074 43.04574 46.02169 48.54063 50.53773 51.89367 52.70411 53.17493 53.20354 52.91489 52.02332 50.94152 49.9972 49.48193 49.1827 49.01223 49.05672 49.34954 50.34349 52.23845 54.97429 57.91108 60.65926 63.02817 65.15363 66.96096 68.68493 70.40331 72.14955 73.9884 77.16319 79.23611 81.42191 83.78285 86.2607 88.73267 90.99107 92.81567 94.29501 95.47264 96.35544 97.11953 97.80475 98.73232 100.6947 104.2363 109.3321 114.8838 120.1402 124.9016 129.1445 132.8205 135.94 138.7129 141.2841 143.9051 146.688 151.5641 159.0798 168.8537 178.28 186.63 194.5946 206.4787 217.4322 228.9275 240.1977 250.5316 259.4018 266.8953 273.6672 279.5705 284.7809 289.6175 297.9543 310.7439 324.8377 335.0261 338.0457 334.5318 325.2963 312.8454 297.3369 279.8288 263.4453 -9999 -9999
0 0 0 0 0 0 0 0 0 0 0 0 0 0 0 0 0 0 0 0 0 0 0 0 0 0 0 0 0 0 0 0 0 0 0 0 0 0 0 0 0 0 0 0 0 0 0 0 0 0 0 0 0 0 0 0 0 0 0 0 0 0 0 0 0 0 0 0 0 0 0 0 0 0 0 0 0 0 0 0 0 0 0 0 0 0 0 0 0 0 0 0 0 0 0 0 0 0 0 0 0 0 0 0 0 0 0 0 0 0 0 0 0 0 0 0 0 0 0 0 0 0 0 0 0 0 0 0 0 0 0 0 0 0 0 0 0 0 0 0 0 0 0 0 0 0 0 0 0 0 0 0 0 0 0 0 0 0 0 0 0 0 0 0 0 0 0 0 0 0 0 0 0 0 0 0 0 0 0 0 0 0 0 0 0 0 0 0 0 0 0 0 0 0 0 0 0 0 0 0 0 0 0 0 0 0 0 0 0 0 0 0 0 0 0 0 0 0 0 0 0 0.3090121 0.6367621 0.9645121 0.984252 0.984252 0.984252 0.984252 0.984252 0.984252 0.984252 0.984252 1.065967 1.147334 1.222129 1.290354 1.352008 1.40709 1.392668 1.432762 1.471421 1.503508 1.529024 1.707229 1.911564 2.087714 2.132046 2.157596 2.176574 2.159853 2.114024 2.513164 2.308523 2.16012 1.933967 1.599803 1.250699 1.009695 0.9845384 0.984252 0.984252 0.984252 0.984252 0.984252 0.984252 0.984252 0.984252 0.984252 0.984252 0.984252 0.984252 0.984252 0.984252 0.984252 0.984252 0.984252 0.984252 0.984252 0.984252 0.7845862 0.5660864 0.3475867 0.328084 0.328084 0.328084 0.328084 0.3642732 0.5646391 0.7765605 0.9708188 0.984252 0.984252 0.984252 0.984252 0.984252 0.984252 0.984252 0.984252 0.984252 0.984252 0.984252 0.984252 0.984252 0.984252 0.984252 0.984252 0.984252 0.984252 0.984252 0.984252 0.984252 0.984252 0.984252 0.984252 0.984252 0.984252 0.984252 0.984252 0.984252 0.984252 0.984252 0.984252 0.984252 0.984252 0.984252 0.984252 0.984252 0.984252 0.984252 0.984252 0.984252 0.984252 0.984252 0.984252 0.984252 0.984252 0.984252 0.984252 0.984252 0.984252 0.7850338 0.5665344 0.3480349 0.328084 0.328084 0.625237 1.150865 1.829651 2.417439 2.988121 3.699801 4.54704 5.202538 5.858036 6.61487 7.379618 8.144366 8.812079 9.465545 10.11911 10.87527 11.64002 12.40477 13.08335 13.92669 14.79912 15.72683 16.59928 17.53738 18.57557 19.71632 20.82223 21.85313 22.67289 23.46048 24.15447 24.93728 25.76708 26.74573 27.81984 28.91541 29.92109 30.90974 32.04038 34.82089 36.94651 39.31251 42.06467 44.73172 47.30704 49.49573 51.36215 52.60375 53.38479 53.73664 53.92761 53.98076 53.65503 52.81755 51.55391 50.44869 49.74007 49.46331 49.39273 49.67355 50.73947 52.72381 55.46884 58.38408 61.17211 63.69915 65.94463 67.86098 69.63944 71.40011 73.25202 75.18074 78.38728 80.66054 83.15632 85.77272 88.58047 91.3779 93.96077 96.00974 97.30394 97.94615 98.26592 98.58029 98.99424 100.2293 102.7726 106.8129 111.8293 117.072 122.1189 126.6951 130.6863 133.9933 136.784 139.2555 141.556 143.9384 146.5819 151.5934 159.2546 169.2613 178.9935 187.8713 196.6304 209.1754 220.7166 232.6031 244.3817 255.2417 265.0645 273.6893 280.9807 286.1541 290.0519 294.2657 303.5827 317.9506 333.9389 344.4335 347.9248 343.349 332.7237 318.7442 303.2194 286.4087 268.3918 -9999 -9999
0 0 0 0 0 0 0 0 0 0 0 0 0 0 0 0 0 0 0 0 0 0 0 0 0 0 0 0 0 0 0 0 0 0 0 0 0 0 0 0 0 0 0 0 0 0 0 0 0 0 0 0 0 0 0 0 0 0 0 0 0 0 0 0 0 0 0 0 0 0 0 0 0 0 0 0 0 0 0 0 0 0 0 0 0 0 0 0 0 0 0 0 0 0 0 0 0 0 0 0 0 0 0 0 0 0 0 0 0 0 0 0 0 0 0 0 0 0 0 0 0 0 0 0 0 0 0 0 0 0 0 0 0 0 0 0 0 0 0 0 0 0 0 0 0 0 0 0 0 0 0 0 0 0 0 0 0 0 0 0 0 0 0 0 0 0 0 0 0 0 0 0 0 0 0 0 0 0 0 0 0 0 0 0 0 0 0 0 0 0 0 0 0 0 0 0 0 0 0 0 0 0 0 0 0 0 0 0 0 0 0 0 0 0 0 0 0 0 0 0 0 0.3188823 0.6466323 0.9743823 0.984252 0.984252 0.984252 0.984252 0.984252 0.984252 0.984252 0.984252 1.089321 1.198571 1.385585 1.494895 1.672162 1.778063 1.841209 1.938715 2.038098 2.137481 2.236865 2.336248 2.435631 2.473969 2.566682 2.662777 2.72575 2.72001 2.633929 2.946871 2.824466 2.596039 2.349642 2.014997 1.56334 1.219876 0.9921219 0.984252 0.984252 0.984252 0.984252 0.984252 0.984252 0.984252 0.984252 0.984252 0.984252 0.984252 0.984252 0.984252 0.984252 0.984252 0.984252 0.984252 0.984252 0.984252 0.8980706 0.6932881 0.4813664 0.3367787 0.328084 0.328084 0.328084 0.328084 0.539349 0.7578487 0.9763484 0.984252 0.984252 0.984252 0.984252 0.984252 0.984252 0.984252 0.984252 0.984252 0.984252 0.984252 0.984252 0.984252 0.984252 0.984252 0.984252 0.984252 0.984252 0.984252 0.984252 0.984252 0.984252 0.984252 0.984252 0.984252 0.984252 0.984252 0.984252 0.984252 0.984252 0.984252 0.984252 0.984252 0.984252 0.984252 0.984252 0.984252 0.984252 0.984252 0.984252 0.984252 0.984252 0.984252 0.984252 0.984252 0.984252 0.984252 0.984252 0.984252 0.984252 0.984252 0.7784528 0.5599533 0.3414538 0.328084 0.328084 0.6351088 1.167318 1.917803 2.580544 3.236043 3.891541 4.566784 5.222282 5.87778 6.637907 7.402654 8.174536 8.936333 9.697791 10.45457 11.11078 11.76851 12.4328 13.17782 14.04197 14.99515 15.97061 16.92019 17.96485 19.11208 20.36187 21.5481 22.62749 23.49524 24.2471 24.94065 25.82866 26.82633 27.84365 28.7283 29.6509 30.68452 31.84858 33.25494 36.03411 38.29773 40.76544 43.43641 45.82169 48.07275 50.01891 51.65231 52.967 53.75021 54.28252 54.59381 54.87313 54.82932 54.48736 53.58248 52.1806 50.88088 50.07001 49.97191 50.44819 51.75923 53.91073 56.56025 59.30545 61.95935 64.45406 66.73409 68.73324 70.56853 72.39288 74.28875 76.24973 79.67091 82.01588 84.66407 87.556 90.65562 93.68523 96.50216 98.68532 99.86594 100.278 100.3516 100.6051 101.6892 103.7841 107.052 111.0644 115.5447 120.1934 124.7546 128.964 132.4913 135.3445 137.8211 140.1369 142.3985 144.7093 147.4151 152.5341 160.3313 170.3192 180.1796 189.2934 198.824 211.8996 224.1571 236.6482 249.0318 260.7382 272.2747 282.5233 290.1451 294.0345 295.9488 300.1989 310.48 325.9989 340.0838 347.9363 349.8952 345.8607 335.7039 321.4279 306.394 290.5965 272.4541 -9999 -9999
0 0 0 0 0 0 0 0 0 0 0 0 0 0 0 0 0 0 0 0 0 0 0 0 0 0 0 0 0 0 0 0 0 0 0 0 0 0 0 0 0 0 0 0 0 0 0 0 0 0 0 0 0 0 0 0 0 0 0 0 0 0 0 0 0 0 0 0 0 0 0 0 0 0 0 0 0 0 0 0 0 0 0 0 0 0 0 0 0 0 0 0 0 0 0 0 0 0 0 0 0 0 0 0 0 0 0 0 0 0 0 0 0 0 0 0 0 0 0 0 0 0 0 0 0 0 0 0 0 0 0 0 0 0 0 0 0 0 0 0 0 0 0 0 0 0 0 0 0 0 0 0 0 0 0 0 0 0 0 0 0 0 0 0 0 0 0 0 0 0 0 0 0 0 0 0 0 0 0 0 0 0 0 0 0 0 0 0 0 0 0 0 0 0 0 0 0 0 0 0 0 0 0 0 0 0 0 0 0 0 0 0 0 0 0 0 0 0 0 0 0 0.001002705 0.3287527 0.6565026 0.984252 0.984252 0.984252 0.984252 0.984252 0.984252 0.984252 0.984252 0.984252 1.092611 1.285292 1.500248 1.684196 1.822294 1.998837 2.102524 2.268701 2.369136 2.525435 2.622592 2.718686 2.81478 2.910875 3.006969 3.103064 3.126647 3.111093 3.53125 3.405516 3.2581 3.008065 2.670491 2.332875 1.794312 1.335322 0.9919519 0.984252 0.984252 0.984252 0.984252 0.984252 0.984252 0.984252 0.984252 0.984252 0.984252 0.984252 0.984252 0.984252 0.984252 0.984252 0.984252 0.984252 0.984252 0.984252 0.7712034 0.5527036 0.3342039 0.328084 0.328084 0.328084 0.328084 0.328084 0.5459298 0.7644296 0.9829292 0.984252 0.984252 0.984252 0.984252 0.984252 0.984252 0.984252 0.984252 0.984252 0.984252 0.984252 0.984252 0.984252 0.984252 0.984252 0.984252 0.984252 0.984252 0.984252 0.984252 0.984252 0.984252 0.984252 0.984252 0.984252 0.984252 0.984252 0.984252 0.984252 0.984252 0.984252 0.984252 0.984252 0.984252 0.984252 0.984252 0.984252 0.984252 0.984252 0.984252 0.984252 0.984252 0.984252 0.984252 0.984252 0.984252 0.984252 0.984252 0.984252 0.984252 0.8610138 0.6516651 0.4397444 0.3315499 0.328084 0.328084 0.6449811 1.222721 1.977916 2.634077 3.256952 3.985471 4.610577 5.242256 5.897526 6.660943 7.425691 8.290886 9.056473 9.827733 10.48664 11.14218 11.89591 12.64507 13.40298 14.17966 15.06995 16.13277 17.19326 18.35354 19.54454 20.84255 22.10298 23.24978 24.17507 24.98121 25.7772 26.72844 27.74482 28.66463 29.45569 30.26774 31.25848 32.60939 35.1391 37.13245 39.52518 42.02466 44.58354 46.95275 48.99531 50.73273 52.24723 53.54924 54.41137 54.94529 55.1633 55.38023 55.55042 55.4937 55.29732 54.49426 53.62202 52.61483 52.27337 52.60739 53.8895 55.77697 58.08932 60.54723 63.07922 65.46856 67.7414 69.79986 71.75043 75.4903 77.51295 81.22363 83.6171 86.20258 89.09805 92.11311 95.24388 98.29275 101.222 103.4696 104.8668 105.5631 106.0266 107.2358 109.3431 112.4772 116.0264 119.9372 124.073 128.1361 131.7669 134.8157 137.3002 139.5866 141.6541 143.7852 145.9319 149.0471 154.3838 162.3466 172.0477 181.7896 191.0654 200.995 214.0625 227.3465 240.7598 254.0985 267.672 280.9205 292.0986 299.3875 302.3674 303.2003 307.1664 319.2101 333.8902 345.4232 349.2469 348.9412 344.567 334.7194 322.0467 308.9592 294.0862 276.1334 -9999 -9999
0 0 0 0 0 0 0 0 0 0 0 0 0 0 0 0 0 0 0 0 0 0 0 0 0 0 0 0 0 0 0 0 0 0 0 0 0 0 0 0 0 0 0 0 0 0 0 0 0 0 0 0 0 0 0 0 0 0 0 0 0 0 0 0 0 0 0 0 0 0 0 0 0 0 0 0 0 0 0 0 0 0 0 0 0 0 0 0 0 0 0 0 0 0 0 0 0 0 0 0 0 0 0 0 0 0 0 0 0 0 0 0 0 0 0 0 0 0 0 0 0 0 0 0 0 0 0 0 0 0 0 0 0 0 0 0 0 0 0 0 0 0 0 0 0 0 0 0 0 0 0 0 0 0 0 0 0 0 0 0 0 0 0 0 0 0 0 0 0 0 0 0 0 0 0 0 0 0 0 0 0 0 0 0 0 0 0 0 0 0 0 0 0 0 0 0 0 0 0 0 0 0 0 0 0 0 0 0 0 0 0 0 0 0 0 0 0 0 0 0 0 0.01087302 0.338623 0.666373 0.984252 0.984252 0.984252 0.984252 0.984252 0.984252 0.984252 0.984252 0.9886428 1.185655 1.402542 1.696966 1.908321 2.085759 2.292662 2.393665 2.60079 2.70157 2.908918 3.008887 3.158973 3.255485 3.395873 3.488678 3.581268 3.638939 3.625503 4.017897 3.895318 3.6636 3.325984 2.988367 2.650428 2.29868 1.743607 1.304289 0.984252 0.984252 0.984252 0.984252 0.984252 0.984252 0.984252 0.984252 0.984252 0.984252 0.984252 0.984252 0.984252 0.984252 0.984252 0.984252 0.984252 0.984252 0.9831223 0.7646226 0.5461228 0.328084 0.328084 0.328084 0.328084 0.328084 0.3340112 0.5525109 0.7710107 0.984252 0.984252 0.984252 0.984252 0.984252 0.984252 0.984252 0.984252 0.984252 0.984252 0.984252 0.984252 0.984252 0.984252 0.984252 0.984252 0.984252 0.984252 0.984252 0.984252 0.984252 0.984252 0.984252 0.984252 0.984252 0.984252 0.984252 0.984252 0.984252 0.984252 0.984252 0.984252 0.984252 0.984252 0.984252 0.984252 0.984252 0.984252 0.984252 0.984252 0.984252 0.984252 0.984252 0.984252 0.984252 0.984252 0.984252 0.984252 0.984252 0.984252 0.9835659 0.7650664 0.5465669 0.328084 0.328084 0.328084 0.328084 0.6982225 1.349292 2.146941 2.796746 3.367329 4.194188 4.737147 5.281791 5.91923 6.683978 7.448726 8.211849 8.868807 9.632941 10.40221 11.26655 12.02899 12.88634 13.64524 14.49371 15.35858 16.35799 17.44431 18.63967 19.90866 21.20979 22.51091 23.76672 24.79776 25.71293 26.51353 27.42905 28.30443 29.21584 30.08031 30.94802 32.01871 33.33835 35.88453 38.10008 40.60527 43.17349 45.53147 47.78298 49.61579 51.32711 52.6183 53.70165 54.57075 55.21304 55.61935 55.91847 56.12096 56.45435 56.50885 56.33484 56.05024 55.70946 55.50608 55.59843 56.42673 57.85414 59.80273 61.93689 64.25108 66.46529 68.68501 70.77751 72.89422 74.83679 76.88465 80.03971 82.30351 84.76292 87.3388 90.10856 93.00697 96.01797 99.26837 102.5762 105.7375 107.8276 109.3254 110.5605 112.5135 115.0194 118.0405 121.3109 124.8401 128.5293 132.0617 135.083 137.6595 139.8467 141.8741 143.7115 145.6067 147.8762 151.616 157.4391 165.5681 174.5578 183.5557 192.2339 202.3893 215.1089 230.0305 244.9527 259.3055 274.3385 288.8155 301.6652 310.2144 314.2443 314.1344 316.7351 323.4806 335.5502 344.129 347.808 345.8264 340.5985 331.7375 320.7814 309.6085 295.4552 277.825 -9999
0 0 0 0 0 0 0 0 0 0 0 0 0 0 0 0 0 0 0 0 0 0 0 0 0 0 0 0 0 0 0 0 0 0 0 0 0 0 0 0 0 0 0 0 0 0 0 0 0 0 0 0 0 0 0 0 0 0 0 0 0 0 0 0 0 0 0 0 0 0 0 0 0 0 0 0 0 0 0 0 0 0 0 0 0 0 0 0 0 0 0 0 0 0 0 0 0 0 0 0 0 0 0 0 0 0 0 0 0 0 0 0 0 0 0 0 0 0 0 0 0 0 0 0 0 0 0 0 0 0 0 0 0 0 0 0 0 0 0 0 0 0 0 0 0 0 0 0 0 0 0 0 0 0 0 0 0 0 0 0 0 0 0 0 0 0 0 0 0 0 0 0 0 0 0 0 0 0 0 0 0 0 0 0 0 0 0 0 0 0 0 0 0 0 0 0 0 0 0 0 0 0 0 0 0 0 0 0 0 0 0 0 0 0 0 0 0 0 0 0 0 0.02074365 0.3484936 0.6762436 0.984252 0.984252 0.984252 0.984252 0.984252 0.984252 0.984252 0.984252 0.9956315 1.218587 1.522163 1.841268 2.056479 2.275173 2.556045 2.727992 2.931827 3.035898 3.239955 3.343803 3.548083 3.651708 3.856211 3.955595 4.05107 4.041203 4.031337 4.342353 4.216484 3.981476 3.643859 3.305369 2.950722 2.494283 1.833741 1.296054 0.984252 0.984252 0.984252 0.984252 0.984252 0.984252 0.984252 0.984252 0.984252 0.984252 0.984252 0.984252 0.984252 0.984252 0.984252 0.984252 0.984252 0.9804877 0.8793404 0.6674188 0.4582886 0.328084 0.328084 0.328084 0.328084 0.3310484 0.3849432 0.5968647 0.8070658 0.984252 0.984252 0.984252 0.984252 0.984252 0.984252 0.984252 0.984252 0.984252 0.984252 0.984252 0.984252 0.984252 0.984252 0.984252 0.984252 0.984252 0.984252 0.984252 0.984252 0.984252 0.984252 0.984252 0.984252 0.984252 0.984252 0.984252 0.984252 0.984252 0.984252 0.984252 0.984252 0.984252 0.984252 0.984252 0.984252 0.984252 0.984252 0.984252 0.984252 0.984252 0.984252 0.984252 0.984252 0.984252 0.984252 0.984252 0.984252 0.984252 0.984252 0.9769844 0.7584848 0.5399853 0.328084 0.328084 0.3308971 0.4333813 0.8695068 1.521896 2.312365 2.967863 3.621621 4.294392 4.86285 5.405809 5.958453 6.707014 7.471762 8.231595 8.887262 9.547839 10.31488 11.09305 11.96456 12.84511 13.79671 14.66742 15.54204 16.52579 17.6214 18.89775 20.2045 21.57486 22.80901 24.04346 25.07091 26.04834 26.81588 27.68844 28.5045 29.48299 30.39824 31.48569 32.64563 34.0902 36.61556 39.04231 41.64808 44.17301 46.46939 48.60273 50.40769 51.89468 53.07589 53.93633 54.59188 55.14624 55.6799 56.10109 56.49885 56.92107 57.18787 57.41058 57.5108 57.69737 57.8691 58.20387 58.92904 60.05231 61.61414 63.42054 65.4613 67.56403 69.75999 71.90684 73.94455 75.87604 77.88611 81.22955 83.49123 85.84069 88.28332 90.72806 93.27104 95.7422 98.27549 101.4818 105.0128 108.5642 111.5018 114.3342 117.1759 120.2338 123.4306 126.7456 130.1024 133.2622 136.2286 138.6881 140.8798 142.7675 144.5206 146.2484 148.544 151.8626 156.5763 162.8671 170.1997 177.8211 185.191 192.617 202.5779 215.9917 232.257 248.4463 264.3181 280.2378 296.0761 310.286 321.4288 326.8644 328.3336 328.1626 330.5711 335.2699 339.7079 341.5171 339.5135 334.4249 326.9869 318.1949 308.7183 295.1649 277.637 -9999
0 0 0 0 0 0 0 0 0 0 0 0 0 0 0 0 0 0 0 0 0 0 0 0 0 0 0 0 0 0 0 0 0 0 0 0 0 0 0 0 0 0 0 0 0 0 0 0 0 0 0 0 0 0 0 0 0 0 0 0 0 0 0 0 0 0 0 0 0 0 0 0 0 0 0 0 0 0 0 0 0 0 0 0 0 0 0 0 0 0 0 0 0 0 0 0 0 0 0 0 0 0 0 0 0 0 0 0 0 0 0 0 0 0 0 0 0 0 0 0 0 0 0 0 0 0 0 0 0 0 0 0 0 0 0 0 0 0 0 0 0 0 0 0 0 0 0 0 0 0 0 0 0 0 0 0 0 0 0 0 0 0 0 0 0 0 0 0 0 0 0 0 0 0 0 0 0 0 0 0 0 0 0 0 0 0 0 0 0 0 0 0 0 0 0 0 0 0 0 0 0 0 0 0 0 0 0 0 0 0 0 0 0 0 0 0 0 0 0 0 0 0.03061438 0.3583644 0.6861143 0.984252 0.984252 0.984252 0.984252 0.984252 0.984252 0.984252 0.9998506 1.183272 1.404063 1.718512 1.963475 2.255722 2.538408 2.782889 2.994812 3.203395 3.370225 3.570992 3.67813 3.87912 3.986036 4.187248 4.286632 4.378817 4.36895 4.359083 4.666809 4.537649 4.299351 3.960113 3.598325 3.143566 2.669765 1.936351 1.389498 0.984252 0.984252 0.984252 0.984252 0.984252 0.984252 0.984252 0.984252 0.984252 0.984252 0.984252 0.984252 0.984252 0.984252 0.984252 0.984252 0.984252 0.9697375 0.7512377 0.5327379 0.328084 0.328084 0.328084 0.328084 0.328084 0.3473963 0.565896 0.7843958 0.984252 0.984252 0.984252 0.984252 0.984252 0.984252 0.984252 0.984252 0.984252 0.984252 0.984252 0.984252 0.984252 0.984252 0.984252 0.984252 0.984252 0.984252 0.984252 0.984252 0.984252 0.984252 0.984252 0.984252 0.984252 0.984252 0.984252 0.984252 0.984252 0.984252 0.984252 0.984252 0.984252 0.984252 0.984252 0.984252 0.984252 0.984252 0.984252 0.984252 0.984252 0.984252 0.984252 0.984252 0.984252 0.984252 0.984252 0.984252 0.984252 0.984252 0.984252 0.9704028 0.7519033 0.5334038 0.328084 0.328084 0.3437221 0.6211001 1.110182 1.79449 2.403599 3.019281 3.643107 4.342937 4.965083 5.511332 6.066123 6.730051 7.494798 8.251339 8.914933 9.679681 10.44925 11.3067 12.08151 12.95309 13.83893 14.71895 15.68662 16.76227 18.0066 19.22781 20.45781 21.72663 22.92437 24.04978 24.97263 25.84917 26.73745 27.67114 28.64084 29.577 30.52748 31.63432 32.96451 34.60749 36.9152 39.46349 42.11434 44.84331 47.33136 49.37469 50.96156 52.14124 53.21033 54.06721 54.71206 55.25501 55.79719 56.31858 56.74326 57.09059 57.49894 57.90388 58.34176 58.72813 59.18281 59.78534 60.70623 61.89879 63.34243 64.94651 66.77041 68.72205 70.89124 73.00744 75.09295 77.06936 79.07596 82.4139 84.65723 86.90405 89.11804 91.2571 93.31138 95.28471 97.41437 100.4254 104.3179 108.9842 113.4443 117.7089 121.7015 125.4756 129.0398 132.2736 135.338 138.0274 140.511 142.5601 144.4049 145.9734 147.8512 150.5448 154.377 159.2189 164.7262 170.6786 176.4249 181.7403 186.9145 192.9442 203.2097 217.3552 234.6089 251.743 268.3053 284.8456 301.5131 318.2927 332.611 340.7773 341.8458 338.8237 336.6443 336.1605 336.67 336.1707 333.6044 328.7919 322.3229 314.963 306.4239 293.4832 276.4613 -9999
0 0 0 0 0 0 0 0 0 0 0 0 0 0 0 0 0 0 0 0 0 0 0 0 0 0 0 0 0 0 0 0 0 0 0 0 0 0 0 0 0 0 0 0 0 0 0 0 0 0 0 0 0 0 0 0 0 0 0 0 0 0 0 0 0 0 0 0 0 0 0 0 0 0 0 0 0 0 0 0 0 0 0 0 0 0 0 0 0 0 0 0 0 0 0 0 0 0 0 0 0 0 0 0 0 0 0 0 0 0 0 0 0 0 0 0 0 0 0 0 0 0 0 0 0 0 0 0 0 0 0 0 0 0 0 0 0 0 0 0 0 0 0 0 0 0 0 0 0 0 0 0 0 0 0 0 0 0 0 0 0 0 0 0 0 0 0 0 0 0 0 0 0 0 0 0 0 0 0 0 0 0 0 0 0 0 0 0 0 0 0 0 0 0 0 0 0 0 0 0 0 0 0 0 0 0 0 0 0 0 0 0 0 0 0 0 0 0 0 0 0.007659596 0.09218289 0.4100666 0.7240709 0.984252 0.984252 0.984252 0.984252 0.984252 0.984252 0.984252 1.009015 1.23766 1.55499 1.941556 2.156623 2.40097 2.656022 2.944782 3.21989 3.431813 3.637468 3.79284 3.952739 4.113348 4.267984 4.433884 4.576583 4.672392 4.696696 4.68683 4.991265 4.855824 4.59342 4.228448 3.762651 3.216402 2.682928 2.233264 1.699568 1.270267 0.984252 0.984252 0.984252 0.984252 0.984252 0.984252 0.984252 0.984252 0.984252 0.984252 0.984252 0.984252 0.984252 0.984252 0.984252 0.9735396 0.8598275 0.6479059 0.4444974 0.328084 0.328084 0.328084 0.328084 0.328084 0.3539774 0.5724771 0.7909769 0.984252 0.984252 0.984252 0.984252 0.984252 0.984252 0.984252 0.984252 0.984252 0.984252 0.984252 0.984252 0.984252 0.984252 0.984252 0.984252 0.984252 0.984252 0.984252 0.984252 0.984252 0.984252 0.984252 0.984252 0.984252 0.984252 0.984252 0.984252 0.984252 0.984252 0.984252 0.984252 0.984252 0.984252 0.984252 0.984252 0.984252 0.984252 0.984252 0.984252 0.984252 0.984252 0.984252 0.984252 0.984252 0.984252 0.984252 0.984252 0.984252 0.984252 0.984252 0.9638213 0.7453217 0.5268223 0.328084 0.328084 0.3570563 0.7038973 1.269015 2.01852 2.601078 3.174289 3.720478 4.435289 4.981538 5.527786 6.085867 6.753086 7.517834 8.271085 8.937969 9.702717 10.47863 11.34157 12.11726 12.99126 13.8744 14.83981 15.83027 16.93232 18.15759 19.35933 20.55433 21.68623 22.80887 23.77327 24.66142 25.56678 26.61465 27.69791 28.72985 29.64016 30.48843 31.56155 32.88835 34.77177 36.78193 39.43203 42.19127 45.02716 47.63264 49.76461 51.26934 52.34972 53.23348 54.09966 54.82764 55.2802 55.81717 56.26844 56.70698 57.12701 57.57936 58.16515 58.63869 59.22316 59.85818 60.7862 61.89356 63.24049 64.69028 66.30958 68.08854 70.01457 72.04755 74.08262 76.14391 78.15471 80.24922 83.42887 85.55331 87.662 89.58292 91.52309 93.46441 95.41172 97.44543 100.4957 104.8538 110.3934 116.0349 121.3877 126.337 130.6548 134.4559 137.7351 140.6231 143.0798 145.1091 146.8593 148.971 151.6036 155.1419 159.4646 164.6635 170.1287 175.451 179.904 183.6115 186.1758 189.2133 193.7411 205.3962 219.887 237.7415 255.1834 272.0228 288.7936 306.0839 324.537 339.2962 348.0287 348.5926 345.6241 341.3769 337.6488 334.772 332.1752 328.5991 323.8405 317.9753 311.2498 302.743 289.962 274.1928 -9999
0 0 0 0 0 0 0 0 0 0 0 0 0 0 0 0 0 0 0 0 0 0 0 0 0 0 0 0 0 0 0 0 0 0 0 0 0 0 0 0 0 0 0 0 0 0 0 0 0 0 0 0 0 0 0 0 0 0 0 0 0 0 0 0 0 0 0 0 0 0 0 0 0 0 0 0 0 0 0 0 0 0 0 0 0 0 0 0 0 0 0 0 0 0 0 0 0 0 0 0 0 0 0 0 0 0 0 0 0 0 0 0 0 0 0 0 0 0 0 0 0 0 0 0 0 0 0 0 0 0 0 0 0 0 0 0 0 0 0 0 0 0 0 0 0 0 0 0 0 0 0 0 0 0 0 0 0 0 0 0 0 0 0 0 0 0 0 0 0 0 0 0 0 0 0 0 0 0 0 0 0 0 0 0 0 0 0 0 0 0 0 0 0 0 0 0 0 0 0 0 0 0 0 0 0 0 0 0 0 0 0 0 0 0 0 0 0 0 0 0 0.05068982 0.3784398 0.7061898 0.984252 0.984252 0.984252 0.984252 0.984252 0.984252 0.984252 0.984252 1.015596 1.249656 1.592856 2.010922 2.309318 2.601142 2.881132 3.128967 3.377685 3.592896 3.80163 3.971374 4.176056 4.336696 4.531216 4.644601 4.839344 4.938727 5.024443 5.014576 5.22413 5.041281 4.706787 4.277287 3.7462 3.19995 2.668596 2.21213 1.685013 1.265139 0.984252 0.984252 0.984252 0.984252 0.984252 0.984252 0.984252 0.984252 0.984252 0.984252 0.984252 0.984252 0.984252 0.984252 0.984252 0.9563526 0.7378528 0.519353 0.328084 0.328084 0.328084 0.328084 0.328084 0.3365799 0.4108123 0.6227338 0.829223 0.984252 0.984252 0.984252 0.984252 0.984252 0.984252 0.984252 0.984252 0.984252 0.984252 0.984252 0.984252 0.984252 0.984252 0.984252 0.984252 0.984252 0.984252 0.984252 0.984252 0.984252 0.984252 0.984252 0.984252 0.984252 0.984252 0.984252 0.984252 0.984252 0.984252 0.984252 0.984252 0.984252 0.984252 0.984252 0.984252 0.984252 0.984252 0.984252 0.984252 0.984252 0.984252 0.984252 0.984252 0.984252 0.984252 0.984252 0.984252 0.984252 0.984252 0.984252 0.9572397 0.7387401 0.5202407 0.328084 0.328084 0.3669288 0.7203513 1.29205 2.044185 2.699683 3.342792 3.88904 4.478276 5.021235 5.564195 6.122277 6.787661 7.54087 8.29083 8.960534 9.725535 10.50496 11.37812 12.2433 13.11401 13.99872 14.9901 16.05898 17.13775 18.19379 19.39553 20.59289 21.72959 22.67589 23.55318 24.44336 25.44267 26.54491 27.68069 28.66515 29.58695 30.35044 31.36695 32.62404 34.53339 36.23299 38.89624 41.66584 44.50103 47.17894 49.33319 50.92956 52.02365 52.91368 53.69499 54.47073 55.19625 55.74426 56.26618 56.71436 57.21674 57.58334 58.09099 58.71447 59.52597 60.404 61.43357 62.65477 64.13627 65.72991 67.46252 69.30551 71.30627 73.35726 75.43235 77.40345 79.3643 81.31101 84.7051 86.68977 88.64954 90.50047 92.46016 94.43501 96.47789 98.60483 102.0081 106.831 112.9875 119.1938 125.2085 130.7347 135.5644 139.6312 142.9143 145.7375 148.567 151.7187 155.158 158.9344 163.0336 167.7369 172.6703 177.6996 182.3089 186.408 189.3095 191.2042 192.0847 193.2806 196.4668 209.7238 224.0611 241.6045 258.3471 275.0613 291.8591 309.7327 327.7475 341.5002 348.7016 349.6819 347.3971 343.1141 337.6868 333.0891 329.0951 324.8268 319.718 313.9803 307.5343 298.8039 286.1125 271.4568 -9999
0 0 0 0 0 0 0 0 0 0 0 0 0 0 0 0 0 0 0 0 0 0 0 0 0 0 0 0 0 0 0 0 0 0 0 0 0 0 0 0 0 0 0 0 0 0 0 0 0 0 0 0 0 0 0 0 0 0 0 0 0 0 0 0 0 0 0 0 0 0 0 0 0 0 0 0 0 0 0 0 0 0 0 0 0 0 0 0 0 0 0 0 0 0 0 0 0 0 0 0 0 0 0 0 0 0 0 0 0 0 0 0 0 0 0 0 0 0 0 0 0 0 0 0 0 0 0 0 0 0 0 0 0 0 0 0 0 0 0 0 0 0 0 0 0 0 0 0 0 0 0 0 0 0 0 0 0 0 0 0 0 0 0 0 0 0 0 0 0 0 0 0 0 0 0 0 0 0 0 0 0 0 0 0 0 0 0 0 0 0 0 0 0 0 0 0 0 0 0 0 0 0 0 0 0 0 0 0 0 0 0 0 0 0 0 0 0 0 0 0 0.06056053 0.3883106 0.7160606 0.984252 0.984252 0.984252 0.984252 0.984252 0.984252 0.984252 0.984252 1.038385 1.34972 1.692921 2.093761 2.352139 2.679888 3.001681 3.290018 3.560686 3.772608 3.98453 4.196453 4.408374 4.612172 4.774927 4.927799 5.09508 5.232193 5.317908 5.301782 5.166728 4.861518 4.529963 4.168602 3.715312 3.172351 2.62939 2.087233 1.564107 1.166588 0.984252 0.984252 0.984252 0.984252 0.984252 0.984252 0.984252 0.984252 0.984252 0.984252 0.984252 0.984252 0.984252 0.984252 0.984252 0.9497716 0.7312718 0.512772 0.328084 0.328084 0.328084 0.328084 0.328084 0.3673624 0.5858622 0.8082191 1.002688 0.9993991 0.9940409 0.984252 0.984252 0.984252 0.984252 0.984252 0.984252 0.984252 0.984252 0.984252 0.984252 0.984252 0.984252 0.984252 0.984252 0.984252 0.984252 0.984252 0.984252 0.984252 0.984252 0.984252 0.984252 0.984252 0.984252 0.984252 0.984252 0.984252 0.984252 0.984252 0.984252 0.984252 0.984252 0.984252 0.984252 0.984252 0.984252 0.984252 0.984252 0.984252 0.984252 0.984252 0.984252 0.984252 0.984252 0.984252 0.984252 0.984252 0.984252 0.984252 0.9506582 0.7321586 0.5136591 0.328084 0.328084 0.3841601 0.7898982 1.401046 2.137539 2.750573 3.363993 3.935317 4.577559 5.123807 5.673417 6.251271 6.90348 7.573879 8.318363 8.973419 9.639742 10.42511 11.31898 12.29523 13.26492 14.23061 15.21036 16.21045 17.21304 18.21768 19.33172 20.40249 21.51628 22.46957 23.40685 24.3036 25.30115 26.34722 27.37673 28.27128 29.09685 29.82191 30.84881 32.09521 33.98769 35.34298 37.95363 40.69781 43.46366 46.08456 48.32812 49.94474 51.07216 52.09502 53.1012 54.04261 54.71801 55.362 55.91898 56.46188 57.01121 57.5192 58.06026 58.7369 59.57568 60.63234 61.72431 63.07894 64.63892 66.44146 68.30099 70.26857 72.3654 74.50831 76.6769 78.71316 80.73923 82.70332 85.99001 87.77656 89.50924 91.35474 93.40993 95.58273 97.88017 100.7779 104.7573 110.0585 116.2587 122.8029 129.2796 135.39 140.6098 144.9021 148.6359 152.7513 157.5279 162.6253 167.6895 172.6382 177.5031 182.3372 186.8861 190.8566 193.8976 196.2327 197.9411 198.9338 199.0398 198.9547 201.1858 217.2019 230.3484 245.716 260.8401 276.7266 293.228 310.0658 326.9769 340.4024 348.1987 349.6444 347.221 342.5476 336.5619 331.055 326.2317 321.3803 316.1685 310.4928 304.1057 295.4297 284.7424 273.0743 -9999
0 0 0 0 0 0 0 0 0 0 0 0 0 0 0 0 0 0 0 0 0 0 0 0 0 0 0 0 0 0 0 0 0 0 0 0 0 0 0 0 0 0 0 0 0 0 0 0 0 0 0 0 0 0 0 0 0 0 0 0 0 0 0 0 0 0 0 0 0 0 0 0 0 0 0 0 0 0 0 0 0 0 0 0 0 0 0 0 0 0 0 0 0 0 0 0 0 0 0 0 0 0 0 0 0 0 0 0 0 0 0 0 0 0 0 0 0 0 0 0 0 0 0 0 0 0 0 0 0 0 0 0 0 0 0 0 0 0 0 0 0 0 0 0 0 0 0 0 0 0 0 0 0 0 0 0 0 0 0 0 0 0 0 0 0 0 0 0 0 0 0 0 0 0 0 0 0 0 0 0 0 0 0 0 0 0 0 0 0 0 0 0 0 0 0 0 0 0 0 0 0 0 0 0 0 0 0 0 0 0 0 0 0 0 0 0 0 0 0 0 0.07043125 0.3981813 0.7259313 0.984252 0.984252 0.984252 0.984252 0.984252 0.984252 0.984252 1.023784 1.237747 1.577157 1.97143 2.305443 2.60265 2.905273 3.150248 3.401793 3.664746 3.933917 4.149128 4.353343 4.525647 4.723342 4.853286 5.051203 5.180924 5.372091 5.433897 5.396913 5.032534 4.779076 4.442513 4.028579 3.578282 3.04665 2.505293 1.987721 1.573385 1.265588 1.0671 0.984252 0.984252 0.984252 0.984252 0.984252 0.984252 0.984252 0.984252 0.984252 0.984252 0.984252 0.984252 0.984252 0.9623927 0.8339586 0.622037 0.4279561 0.328084 0.328084 0.328084 0.328084 0.328084 0.3739434 0.5924432 0.8336499 1.093613 1.093613 1.071241 0.984252 0.984252 0.984252 0.984252 0.984252 0.984252 0.984252 0.984252 0.984252 0.984252 0.984252 0.984252 0.984252 0.984252 0.984252 0.984252 0.984252 0.984252 0.984252 0.984252 0.984252 0.984252 0.984252 0.984252 0.984252 0.984252 0.984252 0.984252 0.984252 0.984252 0.984252 0.984252 0.984252 0.984252 0.984252 0.984252 0.984252 0.984252 0.984252 0.984252 0.984252 0.984252 0.984252 0.984252 0.984252 0.984252 0.984252 0.984252 0.9586957 0.8122901 0.6003693 0.4099965 0.328084 0.3470268 0.5050959 0.9743526 1.635011 2.32278 2.86574 3.421946 4.03131 4.594013 5.140261 5.708327 6.367088 7.035069 7.716024 8.472909 9.228443 9.990523 10.76644 11.63183 12.50645 13.38765 14.29291 15.25938 16.17308 17.15962 18.1663 19.24205 20.23518 21.25461 22.24443 23.22601 24.16405 25.09451 26.02214 26.88673 27.61355 28.30829 29.04652 30.09346 31.4087 33.20346 34.15291 36.45729 38.99568 41.70232 44.30342 46.57323 48.4148 49.783 50.92082 51.98264 53.16539 54.14887 55.03835 55.59446 56.11741 56.53266 57.11056 57.75825 58.47424 59.41755 60.49683 61.82135 63.28325 64.96893 66.8395 68.83487 71.02665 73.35618 75.71469 78.03013 80.16202 82.18027 84.13085 87.27176 88.90062 90.569 92.30206 94.25226 96.53087 99.53212 103.4223 108.2004 113.5678 119.4824 125.9465 132.8116 139.5397 145.7007 151.2243 156.4834 162.1747 168.4646 174.8706 180.9102 186.4821 191.4629 195.5709 198.5608 200.9732 202.738 204.0635 204.833 205.3316 205.4351 205.767 208.6831 225.7657 236.5063 248.8568 261.9357 276.7638 291.9608 307.3289 323.1212 337.5427 346.5744 348.4864 345.2381 340.077 334.2646 328.7372 323.6743 318.5109 313.1186 307.4479 301.5309 294.1842 286.1709 278.3052 -9999
0 0 0 0 0 0 0 0 0 0 0 0 0 0 0 0 0 0 0 0 0 0 0 0 0 0 0 0 0 0 0 0 0 0 0 0 0 0 0 0 0 0 0 0 0 0 0 0 0 0 0 0 0 0 0 0 0 0 0 0 0 0 0 0 0 0 0 0 0 0 0 0 0 0 0 0 0 0 0 0 0 0 0 0 0 0 0 0 0 0 0 0 0 0 0 0 0 0 0 0 0 0 0 0 0 0 0 0 0 0 0 0 0 0 0 0 0 0 0 0 0 0 0 0 0 0 0 0 0 0 0 0 0 0 0 0 0 0 0 0 0 0 0 0 0 0 0 0 0 0 0 0 0 0 0 0 0 0 0 0 0 0 0 0 0 0 0 0 0 0 0 0 0 0 0 0 0 0 0 0 0 0 0 0 0 0 0 0 0 0 0 0 0 0 0 0 0 0 0 0 0 0 0 0 0 0 0 0 0 0 0 0 0 0 0 0 0 0 0 0 0.08030196 0.408052 0.7358021 0.984252 0.984252 0.984252 0.984252 0.984252 0.984252 0.984252 1.03556 1.279603 1.632785 2.044464 2.372214 2.699965 3.020278 3.294752 3.509963 3.734735 3.986089 4.20459 4.398772 4.532228 4.726632 4.859867 5.054494 5.178677 5.321359 5.317318 5.250315 4.820733 4.513691 4.180926 3.81442 3.37731 2.912628 2.403926 1.971241 1.58899 1.368256 1.17196 1.061466 0.984252 0.984252 0.984252 0.984252 0.984252 0.984252 0.984252 0.984252 0.984252 0.984252 0.984252 0.984252 0.9363867 0.717887 0.4993871 0.328084 0.328084 0.328084 0.328084 0.328084 0.328084 0.3805245 0.5990243 0.8435214 1.093613 1.093613 1.06795 0.984252 0.984252 0.984252 0.984252 0.984252 0.984252 0.984252 0.984252 0.984252 0.984252 0.984252 0.984252 0.984252 0.984252 0.984252 0.984252 0.984252 0.984252 0.984252 0.984252 0.984252 0.984252 0.984252 0.984252 0.984252 0.984252 0.984252 0.984252 0.984252 0.984252 0.984252 0.984252 0.984252 0.984252 0.984252 0.984252 0.984252 0.984252 0.984252 0.984252 0.984252 0.984252 0.984252 0.984252 0.984252 0.984252 0.984252 0.984252 0.937272 0.7187724 0.5002728 0.328084 0.328084 0.3739484 0.6380892 1.120506 1.776005 2.409018 2.955266 3.501515 4.047764 4.610467 5.156715 5.728072 6.408566 7.173314 7.938062 8.678149 9.333648 10.01358 10.77909 11.57399 12.45128 13.32857 14.20948 15.12245 16.09345 17.07999 18.05583 19.02601 20.0759 21.06573 22.04158 22.96898 23.88018 24.69975 25.47347 26.19978 26.87836 27.54977 28.32263 29.35146 30.59137 32.23745 32.8832 34.86152 37.08807 39.43307 41.79939 43.90029 45.84777 47.74533 49.43134 50.9014 52.0309 53.12788 54.09139 54.83582 55.45103 55.91597 56.5051 57.18034 57.89206 58.77985 59.88023 61.36842 63.04557 64.91702 67.0133 69.34975 71.85617 74.42641 76.98983 79.5022 81.80641 83.84357 85.61747 88.94737 90.28809 91.7308 93.33352 95.11306 97.39395 100.7129 105.2083 110.6562 116.5564 122.7559 129.2401 135.8467 142.5397 149.5265 156.6676 163.8482 171.3777 179.0687 186.6855 193.1495 198.3541 202.1926 204.8786 206.4585 207.611 208.4571 209.1425 209.545 210.0828 210.9762 212.9407 217.4225 232.6412 241.2981 251.0907 262.514 276.0116 289.9704 303.8131 316.9585 329.1581 337.6624 340.2371 338.2361 334.2258 330.141 325.627 320.7915 315.6205 310.0947 304.6547 299.3022 293.8896 288.6151 284.0482 -9999
