ncols         472
nrows         31
xllcorner     426177.47837
yllcorner     5094232.3803
cellsize      9.99999999996
NODATA_value  -9999
0 0 0 0 0 0 0 0 0 0 0 0 0 0 0 0 0 0 0 0 0 0 0 0 0 0 0 0 0 0 0 0 0 0 0 0 0 0 0 0 0 0 0 0 0 0 0 0 0 0 0 0 0 0 0 0 0 0 0 0 0 0 0 0 0 0 0 0 0 0 0 0 0 0 0 0 0 0 0 0 0 0 0 0 0 0 0 0 0 0 0 0 0 0 0 0 0 0 0 0 0 0 0 0 0 0 0 0 0 0 0 0 0 0 0 0 0 0 0 0 0 0 0 0 0 0 0 0 0 0 0 0 0 0 0 0 0 0 0 0 0 0 0 0 0 0 0 0 0 0 0 0 0 0 0 0 0 0 0 0 0 0 0 0 0 0 0 0 0 0 0 0 0 0 0 0 0 0.04586136 0.1457595 0.2461085 0.3151606 0.3484847 0.3817841 0.4 0.4 0.4127509 0.4422852 0.4745821 0.4991549 0.5239169 0.5582187 0.587614 0.6 0.6 0.6 0.6 0.6 0.6 0.637603 0.6427143 0.6397069 0.6310204 0.6172591 0.6055008 0.6 0.6 0.6 0.6 0.6 0.6 0.5862922 0.5547428 0.520644 0.5302651 0.5833763 0.6151794 0.616823 0.5982949 0.5802937 0.5459918 0.5147214 0.5034695 0.5235805 0.5578823 0.5727195 0.5520073 0.5097114 0.4950898 0.5148342 0.5234601 0.5043543 0.4357509 0.3691522 0.3179434 0.3 0.3 0.254136 0.1542379 0.05433984 0 0 0 0 0.006190473 0.06976518 0.1989524 0.3273861 0.4 0.4 0.4 0.4132169 0.4435189 0.4758157 0.4963139 0.5 0.5 0.5 0.5 0.5 0.5 0.5 0.5 0.5 0.5 0.5 0.5 0.5 0.5 0.5 0.5 0.5151347 0.548434 0.5817333 0.6 0.6025414 0.6046454 0.6036428 0.6014603 0.6 0.5854539 0.5515045 0.5042622 0.4714122 0.4734174 0.4862307 0.4853755 0.4520762 0.4187768 0.4 0.4 0.4 0.4 0.3909648 0.3657157 0.3334191 0.3088045 0.3 0.257351 0.1544457 0.05454776 0 0.1109532 0.3796462 0.7083666 0.9947672 1.17826 1.351165 1.522065 1.703644 1.898718 2.093101 2.275563 2.455765 2.654404 2.852195 3.036325 3.217605 3.416398 3.615191 3.813984 4.024107 4.247598 4.448262 4.622353 4.798448 4.985596 5.17976 5.364951 5.548138 5.743053 5.964271 6.262155 6.485972 6.708959 6.919378 7.122828 7.33451 7.568645 7.821181 8.078536 8.32993 8.596167 8.915161 9.332765 9.832891 10.40532 11.02502 11.7059 12.41999 13.1187 13.75672 14.32906 14.87936 15.39936 15.87591 16.31845 16.77869 17.35131 18.13038 19.20638 20.5832 22.19172 23.8736 25.53824 26.4491 27.96915 29.27527 30.17384 30.55539 30.47677 30.25709 30.1869 30.2535 30.30759 30.24713 30.11704 30.04289 30.08063 30.20858 30.3259 30.40356 30.46757 30.51625 30.55724 30.61329 30.72351 30.93046 31.29052 31.81526 32.55334 33.47847 34.55192 35.72131 36.91541 38.12426 39.28178 40.3614 41.76337 42.5619 43.29613 44.0528 44.90729 45.88983 46.93666 47.92862 48.79964 49.51977 50.13269 50.6565 51.1232 51.57055 52.07402 52.69518 53.38228 54.07217 54.8562 55.75529 56.66032 57.4516 58.29025 59.97115 63.52274 68.89612 74.83696 80.07282 84.29347 87.7224 90.41332 92.56852 94.50565 95.29369 97.58378 100.1699 102.8696 105.4095 107.6518 109.6156 111.5449 113.8313 116.5235 119.4448 122.2659 124.9299 127.4683 129.9907 132.5267 135.0322 137.1972 138.9328 140.2979 141.4821 142.6428 143.8232 145.1612 146.7401 148.501 150.2904 151.9325 153.2511 154.3023 155.1626 155.9412 156.6302 157.2256 156.6158 156.8605 157.0396 157.1026 156.9884 156.8167 156.7384 156.7956
0 0 0 0 0 0 0 0 0 0 0 0 0 0 0 0 0 0 0 0 0 0 0 0 0 0 0 0 0 0 0 0 0 0 0 0 0 0 0 0 0 0 0 0 0 0 0 0 0 0 0 0 0 0 0 0 0 0 0 0 0 0 0 0 0 0 0 0 0 0 0 0 0 0 0 0 0 0 0 0 0 0 0 0 0 0 0 0 0 0 0 0 0 0 0 0 0 0 0 0 0 0 0 0 0 0 0 0 0 0 0 0 0 0 0 0 0 0 0 0 0 0 0 0 0 0 0 0 0 0 0 0 0 0 0 0 0 0 0 0 0 0 0 0 0 0 0 0 0 0 0 0 0 0 0 0 0 0 0 0 0 0 0 0 0 0 0 0 0 0 0 0 0 0 0 0 0 0.04886818 0.1487664 0.2648861 0.3494723 0.3817693 0.3989396 0.4 0.4140975 0.4442904 0.4765873 0.4963152 0.5 0.5158821 0.5491815 0.5824808 0.6 0.6 0.6 0.6 0.6080939 0.6238499 0.6908891 0.7 0.7 0.6895534 0.6669443 0.6423323 0.6275768 0.6245693 0.6180457 0.6093502 0.6026576 0.6 0.6 0.6 0.584463 0.550849 0.5189317 0.5215068 0.5550951 0.5846047 0.5976902 0.5913728 0.5704731 0.5388892 0.51709 0.5255849 0.5547742 0.5610941 0.5321457 0.4938743 0.4815344 0.4899289 0.4847288 0.4337461 0.3671474 0.316941 0.3 0.3 0.2511289 0.1512308 0.05133271 0 0 0 0 0.06421003 0.1974074 0.3306048 0.4 0.4 0.4 0.4146024 0.4455243 0.4778211 0.4970303 0.5 0.5 0.5 0.5 0.5 0.5 0.5 0.5 0.5 0.5 0.5 0.5469208 0.543913 0.5409053 0.5378976 0.5348898 0.5267264 0.5260677 0.5452711 0.5751162 0.5965661 0.6106109 0.6263188 0.6314493 0.6199209 0.6024447 0.6000302 0.5838018 0.5488361 0.4993336 0.4666667 0.4687393 0.4826314 0.4779903 0.4436883 0.413309 0.4 0.4 0.4 0.3846111 0.3513118 0.3180125 0.3 0.3 0.2543436 0.1068835 0.03012694 0 0.1286815 0.4163475 0.7574212 1.035157 1.219194 1.412721 1.604165 1.797613 1.980878 2.149716 2.316551 2.496709 2.693873 2.892667 3.090433 3.287057 3.484847 3.682638 3.893021 4.107683 4.313137 4.500974 4.677105 4.864231 5.054951 5.251739 5.448526 5.645314 5.842102 6.046696 6.341592 6.547649 6.771441 7.002531 7.222972 7.441427 7.691682 7.974636 8.270319 8.568857 8.884824 9.233952 9.643467 10.13479 10.72254 11.40918 12.15986 12.92755 13.64643 14.28441 14.85337 15.37924 15.84795 16.23458 16.56226 16.93294 17.43478 18.13726 19.08129 20.26945 21.67125 23.20674 24.82676 25.49534 27.05274 28.45544 29.51781 30.02101 29.9879 29.71509 29.56014 29.61307 29.71547 29.73524 29.6645 29.61375 29.65314 29.79404 29.95858 30.07183 30.11854 30.14586 30.20202 30.28663 30.39196 30.55475 30.84439 31.32392 32.0629 33.08398 34.34402 35.7131 37.10527 38.46699 39.73123 40.83427 42.29258 42.98364 43.60454 44.26869 45.06513 46.02547 47.11384 48.21243 49.23091 50.15709 50.99314 51.71333 52.29034 52.76141 53.19516 53.67381 54.22784 54.82247 55.45871 56.12801 56.75772 57.3115 57.91932 59.0446 61.70311 66.36933 72.13326 77.54696 81.86992 85.41769 88.45235 91.00818 93.20534 93.53341 95.6347 97.93643 100.4666 103.0418 105.433 107.5179 109.4124 111.5786 114.3155 117.5473 120.7749 123.5989 126.0368 128.4215 130.9992 133.6942 136.1471 138.1146 139.6042 140.7406 141.7641 142.7639 143.9069 145.3639 147.1454 149.0564 150.8748 152.4084 153.6501 154.5902 155.3148 155.8895 156.3068 155.1457 155.0938 154.9037 154.5146 153.9221 153.2792 152.8313 152.7158
0 0 0 0 0 0 0 0 0 0 0 0 0 0 0 0 0 0 0 0 0 0 0 0 0 0 0 0 0 0 0 0 0 0 0 0 0 0 0 0 0 0 0 0 0 0 0 0 0 0 0 0 0 0 0 0 0 0 0 0 0 0 0 0 0 0 0 0 0 0 0 0 0 0 0 0 0 0 0 0 0 0 0 0 0 0 0 0 0 0 0 0 0 0 0 0 0 0 0 0 0 0 0 0 0 0 0 0 0 0 0 0 0 0 0 0 0 0 0 0 0 0 0 0 0 0 0 0 0 0 0 0 0 0 0 0 0 0 0 0 0 0 0 0 0 0 0 0 0 0 0 0 0 0 0 0 0 0 0 0 0 0 0 0 0 0 0 0 0 0 0 0 0 0 0 0 0 0.051875 0.1517732 0.2688951 0.3505232 0.3838226 0.4 0.4 0.4170541 0.4503535 0.4836529 0.5 0.5 0.5046115 0.526957 0.5612588 0.5894628 0.6 0.6096361 0.6273293 0.6510707 0.6742866 0.7 0.7 0.7 0.7 0.7 0.7 0.7 0.7 0.6864054 0.6587304 0.6290526 0.6102985 0.6046679 0.6010403 0.6 0.6 0.5812299 0.547832 0.5192869 0.5246832 0.5575151 0.5864384 0.5965249 0.5753164 0.5410145 0.5166401 0.5275893 0.5452271 0.5397956 0.500141 0.4666667 0.4666667 0.4666667 0.4244134 0.3651427 0.3159387 0.3 0.3 0.2481217 0.1482237 0.04832559 0 0 0 0 0.06821956 0.201417 0.3346144 0.4 0.4 0.4160481 0.4475297 0.4798265 0.4976864 0.5 0.5 0.5 0.5 0.5 0.5 0.5 0.5 0.5 0.5091989 0.5263318 0.5414615 0.6 0.6 0.6 0.6 0.6 0.5882845 0.5640501 0.5505106 0.5616918 0.5869227 0.5858433 0.583553 0.6097265 0.6425156 0.6466772 0.5999588 0.5503019 0.5180051 0.4999905 0.4815845 0.4666667 0.4693844 0.4699056 0.4501053 0.4168059 0.4 0.4 0.4 0.3836086 0.3503094 0.31701 0.3 0.2753389 0.2037736 0.04843084 0 0 0.1427556 0.4480106 0.8140404 1.106231 1.30171 1.488038 1.659814 1.829586 2.010348 2.204859 2.401372 2.600281 2.799412 2.996199 3.192987 3.389775 3.586563 3.769434 3.956126 4.158073 4.369216 4.575206 4.76729 4.964077 5.160865 5.357653 5.545169 5.733157 5.930947 6.136498 6.425142 6.637435 6.851439 7.076148 7.307238 7.548483 7.821175 8.120903 8.419549 8.727972 9.068186 9.460364 9.908911 10.44258 11.08922 11.83062 12.63278 13.43322 14.15201 14.7582 15.27154 15.71152 16.06523 16.32676 16.5531 16.8341 17.24245 17.83516 18.65297 19.69614 20.94116 22.35293 23.89685 24.38239 25.92958 27.32874 28.42366 29.05119 29.19575 29.07454 28.96474 28.9962 29.09849 29.18942 29.22023 29.22656 29.25781 29.35207 29.51313 29.65926 29.73716 29.76561 29.82611 29.94901 30.10034 30.2722 30.53205 30.99125 31.73949 32.83598 34.23955 35.82191 37.42804 38.93578 40.2845 41.41365 42.96113 43.55984 44.08002 44.65439 45.39408 46.34474 47.48477 48.70744 49.89828 51.01481 51.99056 52.78543 53.38732 53.86598 54.29384 54.70792 55.14516 55.62233 56.12563 56.5802 56.95279 57.28338 57.61059 58.2395 60.04528 63.82865 69.23795 74.80239 79.41185 83.09093 86.25215 89.04491 91.43084 91.00182 92.83485 94.69901 96.89156 99.42378 102.0266 104.3859 106.3882 108.3978 110.9222 114.2078 117.8428 121.1042 123.7 125.9616 128.3607 131.0569 133.9025 136.486 138.4178 139.6958 140.5336 141.2361 142.0371 143.1746 144.7272 146.5884 148.6344 150.6314 152.3186 153.5132 154.2858 154.7807 155.0531 153.1886 152.8717 152.355 151.6434 150.8105 150.0374 149.495 149.3028
0 0 0 0 0 0 0 0 0 0 0 0 0 0 0 0 0 0 0 0 0 0 0 0 0 0 0 0 0 0 0 0 0 0 0 0 0 0 0 0 0 0 0 0 0 0 0 0 0 0 0 0 0 0 0 0 0 0 0 0 0 0 0 0 0 0 0 0 0 0 0 0 0 0 0 0 0 0 0 0 0 0 0 0 0 0 0 0 0 0 0 0 0 0 0 0 0 0 0 0 0 0 0 0 0 0 0 0 0 0 0 0 0 0 0 0 0 0 0 0 0 0 0 0 0 0 0 0 0 0 0 0 0 0 0 0 0 0 0 0 0 0 0 0 0 0 0 0 0 0 0 0 0 0 0 0 0 0 0 0 0 0 0 0 0 0 0 0 0 0 0 0 0 0 0 0 0 0.05488181 0.15478 0.2729042 0.3515255 0.3848249 0.4 0.4163955 0.4472644 0.4795613 0.497178 0.5 0.5 0.5 0.5054308 0.5289613 0.5632631 0.5905636 0.6075208 0.6328354 0.6671371 0.6923722 0.6545798 0.6575873 0.6605947 0.6636021 0.6666095 0.6696169 0.6726243 0.6756318 0.6786392 0.6816467 0.6846542 0.6716986 0.6439661 0.6142308 0.6 0.6 0.5995131 0.5800917 0.5457898 0.5156932 0.5075468 0.5296946 0.561299 0.5839295 0.5733119 0.53901 0.5044113 0.5018662 0.5129297 0.499221 0.4656755 0.4492706 0.4502732 0.4148684 0.363138 0.3149363 0.3 0.3 0.2451146 0.1452165 0.04531847 0 0 0 0 0.07222909 0.2054265 0.3386239 0.4 0.4175541 0.4495351 0.4818319 0.4982823 0.5 0.5 0.5 0.5 0.5 0.5 0.5119333 0.5330045 0.5520728 0.558851 0.5635467 0.5767691 0.5919946 0.6 0.6 0.6 0.6 0.6 0.6 0.6 0.6 0.6 0.6 0.6 0.5844784 0.554177 0.5535883 0.5828887 0.6164814 0.597043 0.5474279 0.5144419 0.4981542 0.480229 0.4666667 0.4666667 0.4627219 0.4406477 0.4113277 0.4 0.4 0.3826062 0.3493069 0.3160076 0.3 0.2482267 0.1483288 0.04542341 0 0 0.1628113 0.4863974 0.864653 1.145543 1.32684 1.517411 1.709986 1.907112 2.091097 2.259808 2.426515 2.608538 2.806091 3.005887 3.205683 3.405479 3.605275 3.802303 3.998595 4.197388 4.400504 4.604254 4.804049 5.003845 5.203641 5.403437 5.595856 5.787734 5.986526 6.202423 6.489829 6.720919 6.941022 7.155291 7.380855 7.647748 7.95025 8.273204 8.59182 8.892934 9.207131 9.569503 10.03216 10.62906 11.36041 12.18948 13.04364 13.86191 14.57922 15.15029 15.59673 15.92213 16.12945 16.25938 16.37786 16.54213 16.78705 17.21274 17.90752 18.85459 20.00578 21.32796 22.8131 23.18005 24.6526 25.9262 26.89492 27.53988 27.91924 28.12824 28.25173 28.35158 28.46917 28.59567 28.71726 28.80343 28.87357 28.97235 29.11871 29.27923 29.38736 29.46015 29.54934 29.68929 29.84626 30.02117 30.2671 30.69175 31.4561 32.64267 34.23123 36.04116 37.85927 39.53732 40.97647 42.12608 43.75631 44.27082 44.71381 45.24049 45.97222 46.97909 48.19893 49.51471 50.83336 52.07429 53.16329 54.02123 54.64156 55.0925 55.44372 55.76925 56.07164 56.3865 56.75797 57.15964 57.48937 57.687 57.84579 58.08305 58.8981 61.3231 65.84896 71.4861 76.62849 80.58788 83.74816 86.53133 88.95525 87.70768 89.32106 90.90382 92.79236 95.15524 97.80335 100.3704 102.5792 104.55 106.7077 109.6687 113.4539 117.3221 120.4466 122.6917 124.5501 126.7422 129.6818 132.9479 135.6962 137.3964 138.3028 138.9343 139.5854 140.4114 141.4285 142.7433 144.623 147.0066 149.3845 151.198 152.3494 153.0025 153.2548 150.0327 149.6556 149.0675 148.2923 147.4441 146.6641 146.0712 145.8036
0 0 0 0 0 0 0 0 0 0 0 0 0 0 0 0 0 0 0 0 0 0 0 0 0 0 0 0 0 0 0 0 0 0 0 0 0 0 0 0 0 0 0 0 0 0 0 0 0 0 0 0 0 0 0 0 0 0 0 0 0 0 0 0 0 0 0 0 0 0 0 0 0 0 0 0 0 0 0 0 0 0 0 0 0 0 0 0 0 0 0 0 0 0 0 0 0 0 0 0 0 0 0 0 0 0 0 0 0 0 0 0 0 0 0 0 0 0 0 0 0 0 0 0 0 0 0 0 0 0 0 0 0 0 0 0 0 0 0 0 0 0 0 0 0 0 0 0 0 0 0 0 0 0 0 0 0 0 0 0 0 0 0 0 0 0 0 0 0 0 0 0 0 0 0 0 0 0.05788863 0.1588592 0.2777667 0.3525278 0.3858272 0.4 0.4190926 0.452392 0.4856914 0.5 0.5 0.5 0.5 0.5 0.5063103 0.5309656 0.5652674 0.5916042 0.6085126 0.6252463 0.6439831 0.6 0.6 0.6 0.6 0.6 0.6 0.6 0.6 0.6 0.6 0.6 0.6 0.6 0.6 0.6 0.6 0.6 0.5988962 0.5953894 0.5731781 0.5406775 0.5152477 0.510875 0.5347061 0.559927 0.5610705 0.5308571 0.4921706 0.4796299 0.4806325 0.4649601 0.4506959 0.4406141 0.3985421 0.3551612 0.3139339 0.3 0.3 0.248077 0.1568978 0.06371562 0.02191113 0.01890351 0.01589588 0.02027075 0.09411664 0.2195834 0.3448509 0.4001626 0.4189237 0.4522231 0.4855224 0.5 0.5 0.5 0.5 0.5 0.513763 0.5367716 0.5637661 0.5830464 0.5943335 0.6 0.6 0.6 0.6 0.6 0.6 0.6 0.6 0.6 0.6 0.6 0.6 0.6043031 0.6065164 0.6055138 0.6019433 0.5980064 0.5785877 0.5462909 0.5328326 0.5527939 0.5658195 0.5454233 0.5130905 0.4974729 0.4789338 0.4666667 0.452289 0.4371177 0.414835 0.4 0.4 0.3816037 0.3483044 0.3150051 0.3 0.2452193 0.1453214 0.04241598 0 0 0.1718336 0.5096447 0.9139864 1.213944 1.39918 1.57183 1.742475 1.9273 2.124088 2.320876 2.517664 2.714452 2.91124 3.108028 3.304816 3.501604 3.698391 3.89518 4.091967 4.288755 4.485543 4.682331 4.879118 5.075906 5.272694 5.469482 5.66627 5.863057 6.059845 6.266048 6.569848 6.794537 7.025627 7.244548 7.465424 7.73332 8.048876 8.397697 8.738263 9.062881 9.389503 9.757734 10.21332 10.80489 11.54491 12.40079 13.27529 14.11541 14.84763 15.3983 15.76117 15.97132 16.07046 16.08026 16.00814 15.93038 15.93424 16.18635 16.79309 17.7281 18.89275 20.21042 21.65783 21.95322 23.31359 24.48988 25.42638 26.14137 26.68255 27.08531 27.39128 27.62072 27.81922 28.00033 28.16274 28.3061 28.4465 28.59488 28.75756 28.93448 29.09017 29.20979 29.31541 29.45887 29.62916 29.81722 30.0455 30.45243 31.21483 32.50373 34.29166 36.35994 38.42549 40.29118 41.83878 42.98681 44.64159 45.07877 45.50092 46.05651 46.84306 47.90965 49.18736 50.58678 52.03453 53.4094 54.58504 55.47886 56.10019 56.50264 56.72962 56.85249 57.00951 57.28913 57.7136 58.17209 58.51123 58.59494 58.54218 58.47826 58.60448 59.53799 62.42045 67.41138 73.03178 77.68099 81.01582 83.62119 85.84216 83.94566 85.45691 87.02663 88.81216 90.96732 93.47218 96.13081 98.67866 100.9517 103.0632 105.6703 109.1746 113.1246 116.5196 118.7685 120.2078 121.6012 123.9826 127.4819 131.1134 133.7171 135.1059 135.9075 136.5504 137.1361 137.6765 138.2593 139.4632 141.7153 144.6635 147.3124 149.0248 149.8743 150.1423 145.5797 145.3018 144.8807 144.3435 143.7145 143.0399 142.4367 142.1208
0 0 0 0 0 0 0 0 0 0 0 0 0 0 0 0 0 0 0 0 0 0 0 0 0 0 0 0 0 0 0 0 0 0 0 0 0 0 0 0 0 0 0 0 0 0 0 0 0 0 0 0 0 0 0 0 0 0 0 0 0 0 0 0 0 0 0 0 0 0 0 0 0 0 0 0 0 0 0 0 0 0 0 0 0 0 0 0 0 0 0 0 0 0 0 0 0 0 0 0 0 0 0 0 0 0 0 0 0 0 0 0 0 0 0 0 0 0 0 0 0 0 0 0 0 0 0 0 0 0 0 0 0 0 0 0 0 0 0 0 0 0 0 0 0 0 0 0 0 0 0 0 0 0 0 0 0 0 0 0 0 0 0 0 0 0 0 0 0 0 0 0 0 0 0 0 0 0.06089544 0.1810582 0.3142558 0.3866808 0.3995318 0.4 0.4200949 0.4533943 0.4866937 0.5 0.5 0.5150223 0.5385273 0.5600293 0.5663715 0.5580748 0.5493602 0.5559616 0.5744706 0.5929776 0.6 0.5547808 0.5664645 0.5819086 0.5953497 0.6 0.6 0.6 0.6 0.6 0.6 0.6 0.5975465 0.5969567 0.5979592 0.5995882 0.6 0.6 0.6 0.6 0.5976223 0.5751144 0.5408125 0.5106664 0.5047444 0.5143176 0.5199785 0.5154857 0.4978378 0.4750226 0.4666667 0.4559046 0.4493377 0.4308389 0.385431 0.346231 0.3129316 0.3 0.2862377 0.2388447 0.174251 0.1196998 0.1 0.1 0.1 0.1602881 0.2601861 0.3600842 0.4007527 0.4202125 0.4525093 0.4848061 0.4988862 0.5 0.5 0.5 0.5157193 0.5406653 0.5687796 0.5862062 0.595556 0.6 0.6 0.6 0.6 0.6 0.6 0.6465181 0.6435103 0.6405026 0.6374949 0.6344871 0.6251266 0.613245 0.6033665 0.6155699 0.6307489 0.6333333 0.6160399 0.5835322 0.5507069 0.5163981 0.5006563 0.5008535 0.5219365 0.5343695 0.5312388 0.5117993 0.4803632 0.4509164 0.4213182 0.4085563 0.4039667 0.4 0.4 0.3806013 0.347302 0.3140026 0.3 0.2422119 0.1423139 0.05412488 0.005418527 0 0.1879167 0.5378243 0.9522592 1.246063 1.442851 1.639639 1.83303 2.02573 2.220434 2.418735 2.618531 2.818326 3.017154 3.213942 3.410731 3.607518 3.804306 4.001094 4.197882 4.39467 4.591457 4.788245 4.985033 5.181821 5.378609 5.575397 5.76125 5.951001 6.148792 6.355734 6.644384 6.868155 7.099245 7.330334 7.567955 7.842243 8.158801 8.503917 8.825392 9.12308 9.420769 9.77526 10.22955 10.80528 11.51607 12.36185 13.30005 14.22187 14.99757 15.52148 15.79568 15.90283 15.87188 15.74293 15.54191 15.36933 15.27148 15.3308 15.71289 16.5009 17.66527 19.03691 20.49385 20.87137 22.12368 23.215 24.11442 24.8493 25.44545 25.94604 26.3829 26.75715 27.06577 27.31636 27.54666 27.79078 28.02466 28.23939 28.42979 28.6061 28.78152 28.93521 29.08998 29.2592 29.44754 29.64985 29.88844 30.30859 31.14171 32.54915 34.48652 36.73091 38.99951 41.10029 42.79435 43.95559 45.50492 45.95594 46.46026 47.11756 47.98774 49.09536 50.40472 51.87082 53.40235 54.87817 56.13012 57.05607 57.6491 57.94804 58.05478 58.08543 58.15329 58.37078 58.84072 59.47537 60.0184 60.25379 60.13629 59.65902 59.09026 58.81961 59.86982 63.25425 68.58642 74.02896 78.00657 80.51589 82.34853 80.0581 81.47324 83.09246 84.95779 87.1374 89.66055 92.42481 95.22463 97.86121 100.4185 103.2729 106.5903 110.0437 113.003 115.1256 116.6317 118.2275 120.6918 123.9383 127.1223 129.4293 130.8742 131.9007 132.7512 133.455 134.0214 134.5721 135.6471 137.7377 140.5486 143.1355 144.7556 145.4801 145.6804 140.7018 140.5749 140.3881 140.1571 139.8087 139.3001 138.7423 138.4246
0 0 0 0 0 0 0 0 0 0 0 0 0 0 0 0 0 0 0 0 0 0 0 0 0 0 0 0 0 0 0 0 0 0 0 0 0 0 0 0 0 0 0 0 0 0 0 0 0 0 0 0 0 0 0 0 0 0 0 0 0 0 0 0 0 0 0 0 0 0 0 0 0 0 0 0 0 0 0 0 0 0 0 0 0 0 0 0 0 0 0 0 0 0 0 0 0 0 0 0 0 0 0 0 0 0 0 0 0 0 0 0 0 0 0 0 0 0 0 0 0 0 0 0 0 0 0 0 0 0 0 0 0 0 0 0 0 0 0 0 0 0 0 0 0 0 0 0 0 0 0 0 0 0 0 0 0 0 0 0 0 0 0 0 0 0 0 0 0 0 0 0 0 0 0 0 0 0.06390226 0.1850673 0.3182649 0.3878656 0.4 0.4197232 0.4512071 0.4835041 0.4980701 0.5 0.5164129 0.5460252 0.5783221 0.5961679 0.6 0.5792083 0.5459089 0.5214692 0.5247203 0.5425837 0.5517734 0.5 0.5124787 0.5334051 0.5563344 0.566911 0.5699185 0.5729259 0.5759333 0.5789409 0.5819483 0.5849558 0.5693002 0.5606471 0.5639257 0.5867769 0.5999992 0.6204156 0.6313306 0.6303281 0.6108987 0.5968569 0.5902214 0.5815829 0.5601427 0.5334727 0.5088057 0.4861417 0.4786945 0.4716288 0.4666667 0.4573876 0.4399726 0.4228516 0.3697033 0.3309743 0.3071867 0.3 0.2573276 0.1907289 0.1241301 0.1 0.1 0.1 0.1 0.1632952 0.2631933 0.3630913 0.4209965 0.4542958 0.4868115 0.4993334 0.5 0.5 0.5178022 0.5446857 0.5737932 0.5892394 0.5966518 0.6 0.6 0.6 0.6 0.6119948 0.6298735 0.645749 0.6495258 0.7 0.7 0.7 0.7 0.7 0.6854634 0.6609739 0.6344813 0.6223544 0.6363221 0.6407925 0.6349802 0.6123878 0.6 0.5800218 0.5465274 0.5123099 0.5009797 0.5025745 0.5035771 0.5017394 0.4965435 0.4728096 0.4385076 0.4094983 0.4 0.4 0.4 0.3795986 0.3462993 0.3129999 0.3 0.2493703 0.1550255 0.0937545 0.04821484 0.09429383 0.3203422 0.6754102 1.056307 1.325976 1.525772 1.725568 1.908017 2.078537 2.247054 2.432705 2.629493 2.826281 3.024139 3.223935 3.42373 3.623526 3.823322 4.023118 4.239483 4.448668 4.662747 4.870207 5.082008 5.287735 5.484523 5.681312 5.857885 6.030695 6.211173 6.423377 6.725578 6.955665 7.177627 7.403952 7.655986 7.935086 8.239848 8.557358 8.866648 9.16935 9.47508 9.82003 10.24857 10.79692 11.48073 12.28137 13.20011 14.1288 14.90909 15.39272 15.58122 15.59268 15.50465 15.37354 15.19231 15.0338 14.91539 14.89643 15.0993 15.68804 16.73436 18.06973 19.49646 20.08656 21.23245 22.24061 23.09556 23.82805 24.44625 24.97507 25.46109 25.91767 26.33804 26.68103 26.99331 27.3105 27.62568 27.91969 28.17601 28.41498 28.6308 28.83026 29.02736 29.2236 29.42146 29.63725 29.90214 30.38185 31.30858 32.82071 34.82338 37.11583 39.50462 41.7968 43.636 44.84565 46.3783 46.91811 47.49387 48.22854 49.15915 50.32138 51.7082 53.28027 54.90138 56.4337 57.71762 58.64622 59.24973 59.57389 59.66987 59.54522 59.35911 59.4019 59.87537 60.83047 61.89952 62.64367 62.72085 62.04106 60.78954 59.53124 58.97254 60.35582 64.19719 69.4051 74.01427 76.9117 78.66528 76.22592 77.45237 79.00549 80.93974 83.23193 85.95979 89.09534 92.2961 95.23353 98.0294 101.1728 104.6294 107.8879 110.3814 112.1666 113.7183 115.7048 118.3926 121.3048 123.6907 125.2411 126.3154 127.3107 128.3435 129.4055 130.4505 131.5905 133.1553 135.3006 137.5818 139.3401 140.267 140.635 136.3831 136.4851 136.5706 136.6437 136.604 136.4634 136.2019 135.9252 135.9248
0 0 0 0 0 0 0 0 0 0 0 0 0 0 0 0 0 0 0 0 0 0 0 0 0 0 0 0 0 0 0 0 0 0 0 0 0 0 0 0 0 0 0 0 0 0 0 0 0 0 0 0 0 0 0 0 0 0 0 0 0 0 0 0 0 0 0 0 0 0 0 0 0 0 0 0 0 0 0 0 0 0 0 0 0 0 0 0 0 0 0 0 0 0 0 0 0 0 0 0 0 0 0 0 0 0 0 0 0 0 0 0 0 0 0 0 0 0 0 0 0 0 0 0 0 0 0 0 0 0 0 0 0 0 0 0 0 0 0 0 0 0 0 0 0 0 0 0 0 0 0 0 0 0 0 0 0 0 0 0 0 0 0 0 0 0 0 0 0 0 0 0 0 0 0 0 0 0.06690907 0.1890764 0.322274 0.3888679 0.4 0.4221334 0.4554328 0.4887322 0.5 0.5178637 0.5480304 0.5803273 0.5968187 0.6 0.6 0.578206 0.5449066 0.5116072 0.5 0.5 0.5 0.5 0.5 0.5 0.5 0.5 0.5 0.5 0.5 0.5 0.5 0.5 0.5 0.5 0.5208397 0.5544794 0.5887606 0.6220495 0.654004 0.663628 0.6406779 0.6096918 0.6 0.6 0.5947316 0.5691684 0.5348666 0.5005647 0.474106 0.4535065 0.4349101 0.4301378 0.4217575 0.4065837 0.3594148 0.3251129 0.3043328 0.3 0.2553222 0.1887235 0.1221247 0.1 0.1 0.1 0.1 0.1663033 0.2662013 0.3660994 0.4219992 0.4552985 0.4885979 0.5 0.5 0.5193242 0.5503007 0.5825976 0.5976209 0.6 0.6 0.6152411 0.6370578 0.6568716 0.6614549 0.6673767 0.6798536 0.6943337 0.7 0.7 0.7 0.7 0.7 0.7 0.7 0.7 0.7 0.7 0.6957565 0.6761462 0.6446844 0.6136284 0.6008238 0.6 0.6 0.5769812 0.5427259 0.5106822 0.5 0.481324 0.472283 0.4689949 0.4617338 0.4365024 0.4084114 0.3853749 0.3643415 0.3371983 0.3185315 0.3052691 0.3 0.2574638 0.1796231 0.1124779 0.1 0.2633397 0.5516 0.9043878 1.161104 1.357892 1.55468 1.751468 1.948256 2.145044 2.341832 2.53862 2.735408 2.932196 3.128984 3.325772 3.52256 3.719347 3.916136 4.112923 4.313841 4.513908 4.717104 4.918903 5.124369 5.32791 5.527705 5.727501 5.918114 6.101857 6.283597 6.495491 6.807789 7.034865 7.253434 7.477571 7.723463 7.985147 8.256345 8.528913 8.816813 9.113498 9.428772 9.777291 10.18091 10.67538 11.27311 12.01928 12.89369 13.80464 14.54709 15.00216 15.17698 15.20593 15.16063 15.07134 14.94349 14.80964 14.7106 14.71675 14.91306 15.43302 16.33785 17.52713 18.82796 19.55626 20.55718 21.45021 22.23777 22.9343 23.54576 24.10275 24.64309 25.17025 25.67407 26.13001 26.52288 26.88192 27.23079 27.5954 27.94765 28.24321 28.49162 28.70667 28.92925 29.16073 29.40764 29.73231 30.16335 30.81977 31.85513 33.36162 35.28848 37.50525 39.90665 42.30412 44.28495 45.6247 46.977 47.66771 48.3342 49.15142 50.21551 51.5329 53.08076 54.76657 56.46264 58.01786 59.32595 60.29593 60.94955 61.30558 61.37925 61.21063 60.94753 60.94452 61.59074 63.01114 64.70116 65.96027 66.29411 65.62366 63.96168 61.72476 59.80067 59.33581 61.24615 65.05766 69.38619 72.7773 74.87096 73.1234 74.18378 75.42727 77.03635 79.08713 81.72274 85.10795 88.78472 92.13641 94.96426 97.81524 101.1409 104.457 107.12 108.9019 110.2315 111.6586 113.6429 116.0312 118.2867 119.9531 121.2833 122.6169 124.0222 125.4392 126.8578 128.4375 130.3232 132.43 134.3228 135.5618 136.1393 136.312 132.8574 133.2411 133.5964 133.9659 134.1703 134.3525 134.4208 134.4483 135.0034
0 0 0 0 0 0 0 0 0 0 0 0 0 0 0 0 0 0 0 0 0 0 0 0 0 0 0 0 0 0 0 0 0 0 0 0 0 0 0 0 0 0 0 0 0 0 0 0 0 0 0 0 0 0 0 0 0 0 0 0 0 0 0 0 0 0 0 0 0 0 0 0 0 0 0 0 0 0 0 0 0 0 0 0 0 0 0 0 0 0 0 0 0 0 0 0 0 0 0 0 0 0 0 0 0 0 0 0 0 0 0 0 0 0 0 0 0 0 0 0 0 0 0 0 0 0 0 0 0 0 0 0 0 0 0 0 0 0 0 0 0 0 0 0 0 0 0 0 0 0 0 0 0 0 0 0 0 0 0 0 0 0 0 0 0 0 0 0 0 0 0 0 0 0 0 0 0.005218796 0.07345981 0.1948074 0.3259994 0.3898702 0.4222761 0.4541811 0.4864781 0.498678 0.5 0.5229999 0.5562993 0.5895987 0.6 0.6 0.5849161 0.5561829 0.5238859 0.504555 0.5 0.5 0.5 0.455084 0.4580914 0.4610988 0.4641062 0.4671136 0.4701211 0.4731285 0.4761359 0.4791434 0.4821509 0.4851584 0.4881659 0.49322 0.4974679 0.5221828 0.5564846 0.5907865 0.6250884 0.6572716 0.6840053 0.6669283 0.6357977 0.6082571 0.6 0.5937893 0.5671632 0.5328614 0.4985595 0.4642576 0.4299557 0.405883 0.4 0.3884477 0.3613337 0.3290368 0.3059988 0.2829154 0.2309592 0.1663655 0.1145822 0.1 0.1 0.1 0.1 0.1693116 0.2692097 0.3705976 0.4241553 0.4564521 0.4896007 0.5216261 0.5513828 0.58178 0.5936015 0.5981405 0.6 0.6173378 0.6410915 0.6695454 0.6856183 0.6961605 0.7 0.7 0.7 0.7 0.7 0.7 0.7 0.7 0.7 0.7 0.7 0.7 0.7 0.7 0.676947 0.6666667 0.6466989 0.6367064 0.6127868 0.6004289 0.6 0.5995638 0.5755791 0.5412772 0.509459 0.4968379 0.4755433 0.4485685 0.423597 0.4114608 0.4031371 0.3928103 0.3658932 0.3315912 0.3064652 0.3 0.2763698 0.2221496 0.1575562 0.1 0.1 0.2851004 0.597702 0.9768342 1.238213 1.438009 1.637805 1.837601 2.037396 2.237192 2.436988 2.636784 2.83658 3.036376 3.234899 3.431686 3.628474 3.825263 4.02205 4.218838 4.415626 4.612414 4.809202 5.005989 5.202777 5.399565 5.596353 5.793141 5.989928 6.186716 6.383504 6.591883 6.882995 7.093273 7.311244 7.539369 7.778908 8.04303 8.332364 8.629049 8.925735 9.222421 9.519106 9.838503 10.19116 10.61994 11.12759 11.75335 12.47883 13.25692 13.91424 14.36602 14.60601 14.72713 14.77571 14.77405 14.73312 14.67514 14.64084 14.71974 14.97278 15.49619 16.29764 17.3259 18.45257 19.21825 20.08916 20.87762 21.57783 22.19732 22.76422 23.33367 23.92342 24.47628 25.00239 25.52425 26.04139 26.51588 26.94358 27.35821 27.74701 28.09554 28.40681 28.70113 28.97184 29.26941 29.60259 30.0472 30.62595 31.42433 32.52758 33.98331 35.78171 37.86634 40.1898 42.54808 44.56488 46.04216 46.9002 47.84139 48.75027 49.79695 51.11271 52.67298 54.42263 56.23998 57.9885 59.59648 61.06258 62.41232 63.6297 64.57909 65.14378 65.32363 65.23985 65.22743 65.72556 67.17883 69.18607 70.87948 71.51155 70.88452 68.99178 66.02993 62.76847 60.53683 60.48812 62.69991 66.10027 69.38802 71.68835 71.19824 72.21906 73.14575 74.15385 75.47072 77.30524 80.02524 83.50707 87.18489 90.3537 92.97139 95.55502 98.41595 101.4221 104.0588 106.0128 107.1903 108.0804 109.0972 110.3755 111.9868 113.9846 116.327 118.7933 121.153 123.277 125.2054 127.0808 128.9224 130.5477 131.7036 132.3546 132.651 129.1884 129.5634 130.1682 131.1154 132.136 133.1009 133.6969 134.1579 135.5164
0 0 0 0 0 0 0 0 0 0 0 0 0 0 0 0 0 0 0 0 0 0 0 0 0 0 0 0 0 0 0 0 0 0 0 0 0 0 0 0 0 0 0 0 0 0 0 0 0 0 0 0 0 0 0 0 0 0 0 0 0 0 0 0 0 0 0 0 0 0 0 0 0 0 0 0 0 0 0 0 0 0 0 0 0 0 0 0 0 0 0 0 0 0 0 0 0 0 0 0 0 0 0 0 0 0 0 0 0 0 0 0 0 0 0 0 0 0 0 0 0 0 0 0 0 0 0 0 0 0 0 0 0 0 0 0 0 0 0 0 0 0 0 0 0 0 0 0 0 0 0 0 0 0 0 0 0 0 0 0 0 0 0 0 0 0 0 0 0 0 0 0 0 0 0 0 0.04868387 0.1152827 0.2304296 0.315147 0.3818326 0.4241723 0.4574717 0.4907711 0.5 0.5 0.5240026 0.557302 0.5906014 0.5827956 0.560546 0.5321885 0.500894 0.4695995 0.4485223 0.4460617 0.4490691 0.4520765 0.4 0.4 0.4 0.4 0.4 0.4 0.4 0.4 0.4 0.4 0.4 0.4 0.4220803 0.4542035 0.4883297 0.5001712 0.5262587 0.561563 0.5968674 0.6321718 0.6601399 0.6817892 0.6806739 0.6576261 0.6311481 0.5994596 0.5651578 0.5308559 0.496554 0.4622521 0.4279503 0.4050487 0.3885795 0.3270316 0.3051139 0.3 0.2512431 0.1846444 0.1180457 0.1 0.1 0.1 0.1 0.1074297 0.1775892 0.2753423 0.3952162 0.4570248 0.4906374 0.523051 0.5553478 0.5876446 0.5988905 0.6 0.6 0.6188194 0.6491286 0.6814253 0.6971158 0.7 0.7 0.7 0.7 0.7 0.7 0.7 0.7 0.7 0.7 0.7 0.7 0.7 0.7 0.6939555 0.6873392 0.6632505 0.6521268 0.6536416 0.6566494 0.637414 0.6067797 0.5991002 0.6 0.5988057 0.5954167 0.5689262 0.5369477 0.5040014 0.4885761 0.4610414 0.4318767 0.4069651 0.3840567 0.3549229 0.3226261 0.3040941 0.3 0.2533848 0.1867861 0.118182 0.1 0.1 0.3022299 0.6276724 1.017642 1.272934 1.469722 1.66651 1.863298 2.060086 2.256873 2.453662 2.650449 2.847237 3.044026 3.242188 3.464611 3.694533 3.922452 4.127965 4.324753 4.52154 4.718328 4.915116 5.111904 5.308692 5.50548 5.702268 5.899055 6.095843 6.292631 6.489419 6.686206 6.955219 7.158115 7.366123 7.591473 7.854262 8.144601 8.441287 8.737972 9.034658 9.331344 9.631425 9.952192 10.30485 10.68829 11.10739 11.56496 12.04667 12.56805 13.03795 13.46844 13.80985 14.08201 14.26773 14.39412 14.49604 14.58545 14.67269 14.84161 15.15944 15.69239 16.43912 17.32857 18.28598 18.92703 19.68017 20.36436 21.01617 21.59441 22.13711 22.67869 23.28109 23.88706 24.45381 24.99985 25.52645 26.04424 26.51576 26.98559 27.43862 27.90101 28.34186 28.74356 29.10659 29.4607 29.87654 30.41125 31.112 32.01264 33.15084 34.55042 36.20012 38.10368 40.24456 42.41118 44.30447 45.7781 46.39281 47.6016 48.8787 50.29417 51.93482 53.74784 55.59136 57.4079 59.19934 61.07496 62.96522 64.88909 66.92609 69.09364 71.20515 72.65768 72.88694 72.26257 71.88348 72.64261 74.43073 76.20887 77.08801 76.74393 75.10555 72.11641 68.13608 64.39864 62.34558 62.78418 64.98732 67.696 69.79739 69.98039 70.96638 71.84448 72.63631 73.446 74.33058 75.60799 77.60683 80.31708 83.38334 86.24227 88.67762 90.77315 92.84935 95.08843 97.26569 99.15211 100.6456 101.898 103.0889 104.524 106.4082 108.8275 111.5983 114.6936 117.9663 121.0198 123.5442 125.4201 126.9035 128.0087 128.7109 129.0351 125.438 125.3628 126.3366 128.3698 130.821 132.8139 133.9786 135.3123 137.8363
0 0 0 0 0 0 0 0 0 0 0 0 0 0 0 0 0 0 0 0 0 0 0 0 0 0 0 0 0 0 0 0 0 0 0 0 0 0 0 0 0 0 0 0 0 0 0 0 0 0 0 0 0 0 0 0 0 0 0 0 0 0 0 0 0 0 0 0 0 0 0 0 0 0 0 0 0 0 0 0 0 0 0 0 0 0 0 0 0 0 0 0 0 0 0 0 0 0 0 0 0 0 0 0 0 0 0 0 0 0 0 0 0 0 0 0 0 0 0 0 0 0 0 0 0 0 0 0 0 0 0 0 0 0 0 0 0 0 0 0 0 0 0 0 0 0 0 0 0 0 0 0 0 0 0 0 0 0 0 0 0 0 0 0 0 0 0 0 0 0 0 0 0 0 0 0 0.05068951 0.1193051 0.2348406 0.3171526 0.3837514 0.4251751 0.4584745 0.4917739 0.5 0.5 0.5047755 0.5323399 0.5479667 0.5450771 0.5017111 0.4645874 0.4332929 0.4168221 0.4037112 0.4 0.4 0.4 0.355289 0.3582964 0.3711841 0.3853078 0.3974286 0.4 0.4 0.4 0.4 0.4 0.4 0.4 0.4 0.4 0.4 0.4253917 0.4606631 0.4725491 0.5010794 0.5373863 0.6158422 0.6643698 0.6933398 0.67518 0.6418807 0.6085813 0.5752819 0.5419825 0.5086831 0.4753838 0.4420844 0.3961478 0.3593285 0.3078502 0.3 0.3 0.2492376 0.1826389 0.1160401 0.1 0.1 0.1 0.1 0.1502868 0.2168855 0.3085596 0.3818479 0.4489297 0.4915575 0.5249395 0.5582389 0.5915383 0.6 0.6 0.6 0.6247356 0.658035 0.6913343 0.7 0.7 0.7 0.7 0.7 0.7 0.7 0.7 0.6539919 0.6678918 0.683455 0.697015 0.7 0.7 0.7 0.6748735 0.6415741 0.6035291 0.5696652 0.5591294 0.5600564 0.5620616 0.5391783 0.5078841 0.5021157 0.5051234 0.5081312 0.5083856 0.5059391 0.5014895 0.4803468 0.4498076 0.4175109 0.4025739 0.3755196 0.3422202 0.3089209 0.3 0.3 0.2513793 0.1847806 0.1161765 0.1 0.1204608 0.3324506 0.6848914 1.087326 1.355036 1.552173 1.749838 1.954516 2.154953 2.353746 2.552539 2.751333 2.95125 3.149051 3.346728 3.544622 3.744647 3.946675 4.147388 4.347184 4.546979 4.746775 4.946571 5.146368 5.346163 5.545958 5.745755 5.94555 6.145346 6.345141 6.544937 6.744733 6.990396 7.207772 7.434001 7.673901 7.956839 8.253525 8.55021 8.846895 9.138564 9.434531 9.753455 10.08146 10.43413 10.77509 11.13472 11.50434 11.87669 12.27957 12.64588 13.01924 13.32935 13.62997 13.89967 14.14497 14.36278 14.55106 14.7448 15.01132 15.40541 15.95265 16.6364 17.37426 18.16287 18.62763 19.26103 19.86032 20.49306 21.07445 21.61408 22.13735 22.7373 23.36863 23.96343 24.5026 25.04521 25.59323 26.13924 26.65876 27.16749 27.67417 28.17736 28.674 29.13975 29.59051 30.10802 30.76261 31.59804 32.60748 33.81089 35.14009 36.64757 38.27008 40.10587 41.95484 43.68275 45.12041 45.82042 47.30098 48.98939 50.79213 52.73677 54.78356 56.72406 58.59065 60.50406 62.75373 65.10065 67.56503 70.25519 73.18466 75.81515 77.41664 77.47937 76.66343 76.21219 77.40038 79.95773 82.61929 83.95915 83.55602 81.59128 78.34279 73.96983 69.24734 65.85523 64.75449 65.67584 67.29819 68.79194 69.47546 70.3567 71.18456 71.86798 72.52438 73.06699 73.59965 74.28149 75.05563 76.49557 78.68408 81.63564 84.40482 86.50624 88.02262 89.33758 90.73808 92.40166 94.1809 96.09531 98.19469 100.4727 102.8049 104.963 107.0903 109.9543 113.7347 117.9714 121.3186 123.5231 124.713 125.4228 125.5994 122.5166 122.7328 124.6041 127.7233 131.1041 133.6235 135.5472 138.3194 142.3116
0 0 0 0 0 0 0 0 0 0 0 0 0 0 0 0 0 0 0 0 0 0 0 0 0 0 0 0 0 0 0 0 0 0 0 0 0 0 0 0 0 0 0 0 0 0 0 0 0 0 0 0 0 0 0 0 0 0 0 0 0 0 0 0 0 0 0 0 0 0 0 0 0 0 0 0 0 0 0 0 0 0 0 0 0 0 0 0 0 0 0 0 0 0 0 0 0 0 0 0 0 0 0 0 0 0 0 0 0 0 0 0 0 0 0 0 0 0 0 0 0 0 0 0 0 0 0 0 0 0 0 0 0 0 0 0 0 0 0 0 0 0 0 0 0 0 0 0 0 0 0 0 0 0 0 0 0 0 0 0 0 0 0 0 0 0 0 0 0 0 0 0 0 0 0 0 0.05555986 0.1482294 0.2471252 0.3188037 0.3598483 0.3942325 0.4042652 0.4094432 0.4131858 0.4161931 0.440215 0.4741129 0.5028762 0.4908126 0.4357417 0.3799942 0.3447734 0.340252 0.3432594 0.3462668 0.3492742 0.3522816 0.3 0.3 0.3162947 0.3385421 0.3627924 0.3704285 0.3734359 0.3764434 0.3794508 0.3824582 0.3854657 0.3884732 0.3914806 0.3944881 0.3974955 0.4001313 0.402085 0.4043452 0.4088261 0.4384915 0.5047518 0.5717097 0.6140788 0.6182202 0.5925914 0.5612971 0.5300027 0.5149957 0.4875472 0.4552503 0.4229535 0.3782329 0.3411496 0.3037483 0.3 0.3 0.247232 0.1806333 0.1140346 0.1 0.1 0.1 0.1 0.1522923 0.2188911 0.311568 0.3593776 0.4178669 0.4592231 0.4935629 0.5278648 0.5385892 0.5640257 0.5716307 0.5937924 0.6053813 0.6336762 0.6492188 0.653287 0.6381226 0.6359458 0.6389534 0.6419611 0.6449688 0.6479765 0.6509842 0.554094 0.5721384 0.5959541 0.6217729 0.6322496 0.6463514 0.6608559 0.6472282 0.618727 0.5623741 0.5248105 0.4945189 0.4927341 0.4954629 0.4725601 0.440546 0.4095612 0.4052254 0.4318679 0.4636572 0.4934434 0.4787736 0.4478022 0.4155055 0.4020451 0.4 0.3745168 0.3412175 0.3079182 0.3 0.3 0.2493738 0.1827751 0.114171 0.1 0.1523596 0.349687 0.6953154 1.057633 1.339093 1.536022 1.733369 1.962114 2.17231 2.375114 2.577917 2.782643 3.010776 3.194769 3.336432 3.424243 3.552425 3.790787 4.075684 4.340192 4.552996 4.772493 4.958463 5.134262 5.312064 5.524968 5.762526 5.971339 6.170132 6.355497 6.550954 6.76263 7.074891 7.293247 7.530271 7.788136 8.076477 8.379713 8.690082 9.00458 9.278806 9.56588 9.862092 10.16415 10.46146 10.745 11.04808 11.43335 12.0624 12.68713 13.07164 13.12715 13.15517 13.31749 13.61563 13.97843 14.3204 14.6211 14.86442 15.16902 15.58349 16.12789 16.73016 17.34553 17.99191 18.47816 19.01927 19.55528 20.15842 20.74824 21.32647 21.87693 22.43748 23.00357 23.56965 24.13574 24.70483 25.27305 25.84072 26.37819 26.90825 27.47277 28.04114 28.5825 29.1113 29.63535 30.29301 31.09149 32.10498 33.23884 34.4872 35.7752 37.15429 38.56105 40.072 41.56367 43.06244 44.43034 45.40453 47.09985 49.14485 51.32382 53.51721 55.72943 57.78596 59.83855 62.04849 64.68349 67.41777 70.10887 72.86669 75.53638 77.97143 79.84801 80.83468 81.24791 82.02114 84.3131 87.26048 89.69519 90.57553 89.91675 87.35121 83.24715 78.18961 73.13499 69.36416 67.40681 67.2612 67.78668 68.59863 69.77229 70.37334 70.98035 71.45793 71.88004 72.36076 72.99449 73.46713 73.66232 74.02052 75.03333 77.18175 79.73531 82.10146 83.81685 85.20284 86.57584 87.99705 89.35356 90.83727 92.97751 95.65999 98.41704 100.5602 102.2934 104.2347 106.9207 111.0427 115.3335 119.0282 121.0527 122.1923 122.4864 121.3332 122.8835 125.7486 129.3054 132.634 135.4064 138.4038 142.9074 148.0954
0 0 0 0 0 0 0 0 0 0 0 0 0 0 0 0 0 0 0 0 0 0 0 0 0 0 0 0 0 0 0 0 0 0 0 0 0 0 0 0 0 0 0 0 0 0 0 0 0 0 0 0 0 0 0 0 0 0 0 0 0 0 0 0 0 0 0 0 0 0 0 0 0 0 0 0 0 0 0 0 0 0 0 0 0 0 0 0 0 0 0 0 0 0 0 0 0 0 0 0 0 0 0 0 0 0 0 0 0 0 0 0 0 0 0 0 0 0 0 0 0 0 0 0 0 0 0 0 0 0 0 0 0 0 0 0 0 0 0 0 0 0 0 0 0 0 0 0 0 0 0 0 0 0 0 0 0 0 0 0 0 0 0 0 0 0 0 0 0 0 0 0 0 0 0 0 0.0820512 0.1819494 0.2818476 0.3 0.3276344 0.3619362 0.3942635 0.4 0.4 0.4 0.405214 0.4134555 0.4236999 0.4207031 0.3855923 0.3420547 0.3065259 0.3 0.3 0.3 0.3 0.3 0.3 0.3 0.3 0.3 0.3 0.3 0.3 0.3 0.3 0.3 0.3 0.3 0.3 0.3 0.3 0.3006054 0.3036128 0.3066203 0.3340241 0.392273 0.4590692 0.5047926 0.5202556 0.5246652 0.5202587 0.4936958 0.4624015 0.4409009 0.4291197 0.4171033 0.3886514 0.3563546 0.3240578 0.3 0.3 0.2785338 0.2211367 0.156543 0.1084059 0.1 0.1 0.1 0.1 0.1542979 0.2208966 0.312121 0.3583607 0.3926626 0.3999972 0.428921 0.4642254 0.4971165 0.5072132 0.5099962 0.5168214 0.5210096 0.5304316 0.5360332 0.5400434 0.5352632 0.5360479 0.5390555 0.5420632 0.5450709 0.5480786 0.5510863 0.454196 0.4572037 0.4602114 0.4632191 0.4662268 0.4880663 0.5159482 0.5254164 0.5092231 0.4643664 0.433403 0.4055313 0.4243436 0.4310988 0.4321014 0.4064288 0.400151 0.4 0.4022303 0.4068123 0.4133973 0.4127314 0.4081556 0.4015767 0.4 0.3812742 0.3509799 0.3186832 0.3026564 0.3 0.3 0.2473683 0.1807697 0.1121655 0.1 0.1433751 0.3340724 0.6388705 0.9727314 1.227593 1.436684 1.639487 1.864015 2.072972 2.276778 2.483364 2.713648 2.949751 3.159113 3.307385 3.464506 3.601422 3.839031 4.084136 4.367721 4.607044 4.816335 4.990255 5.155749 5.357227 5.582889 5.839274 6.050133 6.246921 6.417513 6.620294 6.845807 7.203165 7.414555 7.687545 7.971647 8.270062 8.581882 8.931886 9.317014 9.638847 9.962465 10.32353 10.77926 11.27959 11.71807 12.30001 13.04772 13.92582 14.49103 14.57204 14.25001 13.85215 13.71477 13.85034 14.17902 14.50027 14.76893 14.9701 15.23743 15.62421 16.15824 16.73936 17.33583 17.92089 18.64161 19.15435 19.68279 20.25019 20.82747 21.40676 21.96841 22.5318 23.08942 23.64548 24.20154 24.79038 25.38159 25.99506 26.53452 27.02986 27.5537 28.08641 28.64252 29.15657 29.68222 30.35015 31.28484 32.48195 33.79718 35.10765 36.39429 37.6784 38.95282 40.22675 41.4734 42.74551 43.99499 45.1814 46.858 49.09057 51.62714 54.03017 56.37973 58.54374 61.00059 63.62445 66.56798 69.38242 72.1516 74.80536 77.34502 79.60351 81.51092 83.04975 84.38686 86.33981 89.07156 92.13317 94.25468 95.00036 94.32513 91.7119 87.30946 81.71215 76.53845 72.56617 70.20777 69.20732 69.03746 69.29102 70.75549 71.03565 71.37141 71.67652 71.95538 72.64676 73.81336 74.61164 74.61565 74.02532 73.87748 74.92722 76.84193 79.30905 81.34511 82.89327 84.24596 85.73166 87.26485 88.82111 90.56059 92.68758 95.14918 97.43703 99.5565 101.6889 103.8494 106.707 109.8827 113.4931 116.2453 118.5257 119.9398 121.7748 124.5584 127.7315 130.9334 134.065 137.7881 142.2003 147.5297 152.4959
0 0 0 0 0 0 0 0 0 0 0 0 0 0 0 0 0 0 0 0 0 0 0 0 0 0 0 0 0 0 0 0 0 0 0 0 0 0 0 0 0 0 0 0 0 0 0 0 0 0 0 0 0 0 0 0 0 0 0 0 0 0 0 0 0 0 0 0 0 0 0 0 0 0 0 0 0 0 0 0 0 0 0 0 0 0 0 0 0 0 0 0 0 0 0 0 0 0 0 0 0 0 0 0 0 0 0 0 0 0 0 0 0 0 0 0 0 0 0 0 0 0 0 0 0 0 0 0 0 0 0 0 0 0 0 0 0 0 0 0 0 0 0 0 0 0 0 0 0 0 0 0 0 0 0 0 0 0 0 0 0 0 0 0 0 0 0 0 0 0 0 0 0 0 0 0 0.08505967 0.1849579 0.2848561 0.3 0.3003843 0.3026877 0.306994 0.3103837 0.313391 0.3163984 0.3194057 0.322413 0.3254204 0.3284277 0.3226716 0.3133714 0.3020684 0.3 0.3 0.3 0.3 0.3 0.3 0.3 0.3 0.3 0.3 0.3 0.3 0.3 0.3 0.3 0.3040509 0.303774 0.3027715 0.3002741 0.3 0.3 0.3 0.3 0.3027243 0.3357721 0.376158 0.4133155 0.4217601 0.4247676 0.4277751 0.4222372 0.4131579 0.3845733 0.363286 0.3460772 0.333178 0.3190965 0.303012 0.3 0.3 0.243153 0.1765542 0.1099555 0.1 0.1 0.1 0.1 0.1 0.1563034 0.2229021 0.2895009 0.3263789 0.3595398 0.3946517 0.4008569 0.40372 0.408586 0.4120888 0.4150965 0.4181041 0.4211118 0.4241194 0.4271271 0.4301347 0.4331424 0.43615 0.4391576 0.4421653 0.4451729 0.4481806 0.4511884 0.3542981 0.3573058 0.3603134 0.3633212 0.3663288 0.3693365 0.3723442 0.3753519 0.3783596 0.3813674 0.3843751 0.3873828 0.3903906 0.3933983 0.3964061 0.3994138 0.4 0.4 0.4 0.4 0.4 0.4 0.3780296 0.3533784 0.3307305 0.3213747 0.3127326 0.3020874 0.3 0.3 0.3 0.2453628 0.1787642 0.1054515 0.1 0.139552 0.3041748 0.5670927 0.8669211 1.107912 1.324597 1.536986 1.747371 1.951213 2.157713 2.388082 2.623183 2.857107 3.065232 3.239833 3.381885 3.543847 3.770101 4.054351 4.33055 4.572419 4.801246 4.999477 5.209339 5.418358 5.664189 5.909526 6.148875 6.368115 6.569009 6.776727 6.988945 7.35424 7.589883 7.902211 8.237969 8.564807 8.853768 9.193438 9.580164 9.968074 10.35691 10.82305 11.48378 12.30483 13.16695 14.05697 14.8418 15.48799 15.772 15.70727 15.33 14.84793 14.5422 14.46205 14.57737 14.72457 14.86373 15.00676 15.18254 15.51364 16.04741 16.73389 17.44908 18.07735 18.95111 19.52624 20.07186 20.61591 21.16196 21.71002 22.26745 22.84773 23.41777 23.99254 24.57166 25.21601 25.84104 26.45465 26.96066 27.4706 27.96386 28.45331 28.94738 29.39118 29.80825 30.36514 31.33929 32.73748 34.28069 35.69873 37.01748 38.27518 39.47916 40.60146 41.68707 42.81509 43.93298 44.93742 46.46772 48.76798 51.60504 54.26225 56.62445 58.81418 61.42851 64.3913 67.61366 70.64599 73.54185 76.21148 78.66612 80.79269 82.72055 84.34219 85.74104 87.7426 90.658 94.0183 96.34065 97.1664 96.48098 94.28238 90.35147 85.15282 80.14954 76.00081 73.33102 71.65707 70.94616 70.67739 72.24912 72.34703 72.48045 72.76955 73.08961 73.77074 74.34103 74.71597 74.4612 74.2302 74.36448 75.1366 76.49568 78.35613 80.63538 82.86752 84.80312 86.24728 87.60449 89.04517 90.75475 93.01277 95.54613 98.01029 100.0074 101.7141 103.737 106.0478 108.9565 111.8338 114.5887 116.9448 119.223 122.8425 126.1919 129.4083 132.2387 135.216 139.4735 144.7976 150.3715 155.1157
0 0 0 0 0 0 0 0 0 0 0 0 0 0 0 0 0 0 0 0 0 0 0 0 0 0 0 0 0 0 0 0 0 0 0 0 0 0 0 0 0 0 0 0 0 0 0 0 0 0 0 0 0 0 0 0 0 0 0 0 0 0 0 0 0 0 0 0 0 0 0 0 0 0 0 0 0 0 0 0 0 0 0 0 0 0 0 0 0 0 0 0 0 0 0 0 0 0 0 0 0 0 0 0 0 0 0 0 0 0 0 0 0 0 0 0 0 0 0 0 0 0 0 0 0 0 0 0 0 0 0 0 0 0 0 0 0 0 0 0 0 0 0 0 0 0 0 0 0 0 0 0 0 0 0 0 0 0 0 0 0 0 0 0 0 0 0 0 0 0 0 0 0 0 0 0.01196642 0.09863285 0.1955238 0.2884167 0.3 0.3 0.3 0.3 0.3 0.3 0.3 0.3 0.3 0.3 0.3 0.3 0.3 0.3 0.3 0.3 0.3 0.3 0.3 0.3836564 0.4192288 0.4148586 0.4058364 0.3968143 0.3877921 0.37877 0.3697478 0.3547865 0.3409076 0.3541397 0.3454717 0.3367488 0.3043792 0.3 0.3 0.3 0.3 0.3 0.3037194 0.3098677 0.3180189 0.3218624 0.3248699 0.3278774 0.3308849 0.3338924 0.3263113 0.3151669 0.3020196 0.3 0.3 0.3 0.3 0.3 0.2411474 0.1745487 0.10795 0.1 0.1 0.1 0.1 0.1 0.158309 0.2249077 0.2915064 0.3 0.3 0.3001536 0.3031682 0.3061758 0.3091834 0.312191 0.3151986 0.3182063 0.3212139 0.3242215 0.3272292 0.3302368 0.3332444 0.3362521 0.3392597 0.3422673 0.345275 0.3482827 0.3512904 0.3 0.3 0.3 0.3 0.3 0.3 0.3 0.3 0.3 0.3 0.3 0.3 0.3 0.3 0.3 0.3 0.3025235 0.3055312 0.3085389 0.3115467 0.3145545 0.3175623 0.3146814 0.3089769 0.3012692 0.3 0.3 0.3 0.3 0.3 0.2686006 0.2084508 0.1438574 0.1 0.1 0.1701174 0.3248429 0.5386145 0.7521168 0.9473234 1.177938 1.414041 1.650144 1.857331 2.089017 2.32512 2.561223 2.768546 2.97135 3.145442 3.340818 3.538899 3.792423 4.061275 4.328332 4.566219 4.777372 4.979285 5.20849 5.452822 5.733469 5.990358 6.251835 6.486986 6.717072 6.933074 7.144658 7.572747 7.83977 8.168944 8.52354 8.84262 9.116679 9.433114 9.827982 10.31078 10.87607 11.56008 12.41729 13.37743 14.26519 14.97508 15.45969 15.8357 16.05626 16.04511 15.7885 15.40833 15.10976 14.93235 14.89911 14.8949 14.91811 14.96064 15.06575 15.36862 15.93427 16.73496 17.56817 18.312 19.21099 19.85883 20.4097 20.93517 21.45893 21.99118 22.55167 23.11467 23.70437 24.34902 25.05925 25.78206 26.45121 27.04889 27.57267 28.05685 28.45711 28.87536 29.22545 29.56457 29.88045 30.40763 31.41829 32.9231 34.62453 36.19182 37.58165 38.8494 40.00989 41.0452 42.02016 42.99134 43.94675 44.71049 46.19675 48.48751 51.46661 54.33976 56.88483 59.31244 62.08881 65.2204 68.58024 71.8535 74.89223 77.56914 79.90337 81.96741 83.87761 85.49271 86.99463 89.17893 92.64255 96.32504 98.89358 99.54182 98.76697 96.49756 92.87645 88.05572 82.88853 78.53059 75.55553 73.83518 72.86348 72.34919 73.82056 73.82308 74.0009 74.57232 75.26804 76.01436 76.23306 76.08717 75.48035 75.08179 75.06448 75.48717 76.52822 78.53152 81.46816 84.3669 86.7006 88.25673 89.60516 91.44421 93.81657 96.64803 99.15137 101.2701 102.6465 103.5338 104.9116 107.0224 110.3899 113.2974 116.0586 117.8513 120.1532 124.5552 127.8795 130.7903 133.1807 136.0316 140.9426 146.9402 152.6345 156.9677
0 0 0 0 0 0 0 0 0 0 0 0 0 0 0 0 0 0 0 0 0 0 0 0 0 0 0 0 0 0 0 0 0 0 0 0 0 0 0 0 0 0 0 0 0 0 0 0 0 0 0 0 0 0 0 0 0 0 0 0 0 0 0 0 0 0 0 0 0 0 0 0 0 0 0 0 0 0 0 0 0 0 0 0 0 0 0 0 0 0 0 0 0 0 0 0 0 0 0 0 0 0 0 0 0 0 0 0 0 0 0 0 0 0 0 0 0 0 0 0 0 0 0 0 0 0 0 0 0 0 0 0 0 0 0 0 0 0 0 0 0 0 0 0 0 0 0 0 0 0 0 0 0 0 0 0 0 0 0 0 0 0 0 0 0 0 0 0 0 0 0 0 0 0 0 0.0911784 0.1910766 0.2909748 0.3 0.3 0.3 0.3 0.3 0.3 0.3 0.3 0.3 0.3 0.3 0.3 0.3 0.3 0.3 0.3 0.3 0.3 0.3 0.3420752 0.5826447 0.6363353 0.6498477 0.6576352 0.6634198 0.6583232 0.6443546 0.6315467 0.5903982 0.5534893 0.5129062 0.4435665 0.3731718 0.3063196 0.3 0.3 0.3 0.3 0.3 0.3 0.3 0.3 0.3 0.3 0.3 0.3 0.3 0.3 0.3 0.3 0.3 0.3 0.3 0.3 0.3 0.2391419 0.1725431 0.1059444 0.1 0.1 0.1 0.1 0.1 0.1603145 0.2269132 0.2935119 0.3 0.3 0.3 0.3 0.3 0.3 0.3 0.3 0.3 0.3 0.3 0.3 0.3 0.3 0.3 0.3 0.3 0.3 0.3 0.3 0.3 0.3 0.3 0.3 0.3 0.3 0.3 0.3 0.3 0.3 0.3 0.3 0.3 0.3 0.3 0.3 0.3 0.3 0.3 0.3 0.3 0.3 0.3 0.3 0.3 0.3 0.3 0.3 0.3 0.3 0.2412838 0.1746852 0.1080865 0.1 0.1 0.1905722 0.3507836 0.5576775 0.7368352 0.9107792 1.127699 1.351338 1.57698 1.779511 2.009192 2.242287 2.475382 2.678695 2.878491 3.079682 3.309609 3.541153 3.777213 4.015866 4.256523 4.516869 4.748236 4.995548 5.250368 5.533572 5.848038 6.135154 6.416274 6.649806 6.892334 7.120594 7.346671 7.853805 8.152099 8.479486 8.813416 9.119949 9.421289 9.765908 10.20898 10.74632 11.41979 12.22575 13.12034 14.02741 14.79518 15.4039 15.81719 16.06421 16.20772 16.21644 16.12846 15.85671 15.52698 15.23915 15.08209 14.99089 14.93893 14.95249 15.04174 15.3447 15.92228 16.75616 17.6513 18.48894 19.4155 20.09992 20.68403 21.2261 21.76275 22.32722 22.91509 23.51934 24.15117 24.8174 25.53701 26.29226 27.04572 27.73408 28.29021 28.74112 29.10006 29.36914 29.60203 29.81089 30.09361 30.69176 31.77121 33.32444 35.01659 36.61874 38.07 39.36325 40.48369 41.43453 42.2797 43.0634 43.86227 44.67815 46.20567 48.54081 51.59084 54.55721 57.26317 59.93296 62.93469 66.27333 69.7771 73.21226 76.36204 79.06566 81.34969 83.41376 85.21308 86.80122 88.27541 90.81647 94.71475 99.01053 102.116 103.0363 101.9653 99.15032 95.35527 90.6283 85.29182 80.29814 76.85145 75.17109 74.36811 73.94151 75.2355 75.22616 75.83875 77.00065 78.36659 79.28217 79.58254 79.28208 78.29535 77.09213 76.1809 75.93199 76.63289 78.94046 82.54905 86.27967 89.01284 91.27475 93.83604 97.05447 100.1307 102.5189 103.9886 104.9761 105.5788 106.119 107.3531 109.6656 112.9733 115.6799 117.9835 119.5234 121.8056 127.8536 130.4632 132.3613 133.9687 136.8121 142.5597 149.0116 154.7029 158.4977
0 0 0 0 0 0 0 0 0 0 0 0 0 0 0 0 0 0 0 0 0 0 0 0 0 0 0 0 0 0 0 0 0 0 0 0 0 0 0 0 0 0 0 0 0 0 0 0 0 0 0 0 0 0 0 0 0 0 0 0 0 0 0 0 0 0 0 0 0 0 0 0 0 0 0 0 0 0 0 0 0 0 0 0 0 0 0 0 0 0 0 0 0 0 0 0 0 0 0 0 0 0 0 0 0 0 0 0 0 0 0 0 0 0 0 0 0 0 0 0 0 0 0 0 0 0 0 0 0 0 0 0 0 0 0 0 0 0 0 0 0 0 0 0 0 0 0 0 0 0 0 0 0 0 0 0 0 0 0 0 0 0 0 0 0 0 0 0 0 0 0 0 0 0 0 0.09418687 0.1940851 0.2939833 0.3 0.3 0.3 0.3 0.3 0.3 0.3 0.3 0.3249067 0.3497073 0.372505 0.3932999 0.4120919 0.4288811 0.4244851 0.4367059 0.448489 0.4582691 0.4660464 0.5203633 0.7423803 0.7540659 0.7823248 0.8116143 0.8308088 0.8290591 0.8028216 0.7660124 0.7036378 0.6584046 0.589473 0.4876201 0.381213 0.3077551 0.3000873 0.3 0.3 0.3 0.3 0.3 0.3 0.3 0.3 0.3 0.3 0.3 0.3 0.3 0.3 0.3 0.3 0.3 0.3 0.3 0.2737319 0.2113142 0.1467205 0.1026501 0.1 0.1 0.1 0.1 0.1110305 0.172102 0.2366957 0.2959056 0.3 0.3 0.3 0.3 0.3 0.3 0.3 0.3 0.3 0.3 0.3 0.3 0.3 0.3 0.3 0.3 0.3 0.3 0.3 0.3 0.3 0.3 0.3 0.3 0.3 0.3 0.3 0.3 0.3 0.3 0.3 0.3 0.3 0.3 0.3 0.3 0.3 0.3 0.3 0.3 0.3 0.3 0.3 0.3 0.3 0.3 0.3 0.3 0.3 0.3 0.2392783 0.1726797 0.1060811 0.1 0.1 0.1935811 0.3557985 0.5845464 0.78655 0.9863458 1.186142 1.385938 1.585733 1.785529 2.016212 2.249308 2.482403 2.685922 2.885098 3.084305 3.314784 3.547879 3.780974 3.987805 4.244855 4.510772 4.793538 5.059461 5.345393 5.661832 6.009533 6.346616 6.660834 6.910698 7.150754 7.362282 7.600884 8.176664 8.486746 8.756386 9.037595 9.352643 9.707447 10.13611 10.61341 11.2613 11.98245 12.82131 13.63423 14.41919 15.0863 15.65518 16.03362 16.27168 16.37893 16.43714 16.45334 16.35405 16.09879 15.71363 15.37676 15.16077 15.07642 15.05491 15.1405 15.46539 16.07022 16.9069 17.79547 18.64526 19.6456 20.34055 20.94989 21.50929 22.06535 22.64321 23.24092 23.89244 24.58533 25.34605 26.14353 26.99933 27.85198 28.63924 29.26377 29.65824 29.85399 29.95145 30.04727 30.17344 30.5499 31.32508 32.55658 34.08556 35.68353 37.22185 38.61665 39.83318 40.84117 41.69177 42.44507 43.14626 43.87244 44.93213 46.4924 48.869 51.91331 54.91875 57.69663 60.60155 63.75666 67.27442 70.89744 74.48756 77.79768 80.79165 83.42049 85.64291 87.21976 88.40783 89.6922 92.53201 96.91134 101.7846 104.9833 106.0475 104.6528 101.4142 97.15324 92.42126 87.29737 81.80581 77.89254 75.95763 75.54242 75.33607 76.05181 76.33443 77.53699 79.36078 81.27609 82.58051 83.17957 83.20018 82.46595 81.1024 79.21285 77.55699 77.30148 79.7522 83.88649 88.35249 92.07114 95.60534 99.47795 103.2393 106.1344 107.8929 108.7986 109.4898 110.1992 111.2962 112.9667 115.0784 117.3098 118.9588 120.6947 122.4664 125.1003 132.7205 133.9713 134.576 135.391 138.004 143.4062 149.6437 155.2813 159.3122
0 0 0 0 0 0 0 0 0 0 0 0 0 0 0 0 0 0 0 0 0 0 0 0 0 0 0 0 0 0 0 0 0 0 0 0 0 0 0 0 0 0 0 0 0 0 0 0 0 0 0 0 0 0 0 0 0 0 0 0 0 0 0 0 0 0 0 0 0 0 0 0 0 0 0 0 0 0 0 0 0 0 0 0 0 0 0 0 0 0 0 0 0 0 0 0 0 0 0 0 0 0 0 0 0 0 0 0 0 0 0 0 0 0 0 0 0 0 0 0 0 0 0 0 0 0 0 0 0 0 0 0 0 0 0 0 0 0 0 0 0 0 0 0 0 0 0 0 0 0 0 0 0 0 0 0 0 0 0 0 0 0 0 0 0 0 0 0 0 0 0 0 0 0 0 0.09719534 0.1970935 0.2969917 0.3 0.3 0.3 0.3 0.3 0.3 0.3 0.3 0.3320252 0.3653246 0.4223264 0.455644 0.509675 0.5419536 0.5612006 0.5909202 0.6212123 0.6515043 0.6817963 0.7120883 0.8579451 0.8872347 0.9165242 0.9458139 0.9530021 0.948261 0.9348369 0.8982062 0.8608971 0.7912728 0.7161707 0.614171 0.476506 0.3718182 0.3023988 0.3 0.3 0.3 0.3 0.3 0.3 0.3 0.3 0.3 0.3 0.3 0.3 0.3 0.3 0.3 0.3 0.3 0.3 0.3 0.2350628 0.1684641 0.1018653 0.1 0.1 0.1 0.1 0.1 0.1643936 0.2309923 0.297591 0.3 0.3 0.3 0.3 0.3 0.3 0.3 0.3 0.3 0.3 0.3 0.3 0.3 0.3 0.3 0.3 0.3 0.3 0.3 0.3 0.3 0.3 0.3 0.3 0.3 0.3 0.3 0.3 0.3 0.3 0.3 0.3 0.3 0.3 0.3 0.3 0.3 0.3 0.3 0.3 0.3 0.3 0.3 0.3 0.3 0.3 0.3 0.3 0.3 0.3 0.3 0.2372724 0.1706738 0.1040751 0.1 0.1 0.1965903 0.3726854 0.6028689 0.8028667 0.992719 1.19216 1.391956 1.591752 1.791548 2.023234 2.256329 2.491599 2.723794 2.955887 3.186554 3.386567 3.587041 3.789518 4.016598 4.279992 4.570522 4.867843 5.157275 5.475688 5.825362 6.206298 6.567862 6.896859 7.161348 7.390517 7.601909 7.872577 8.456622 8.736979 8.978093 9.225607 9.527584 9.939342 10.42215 10.9832 11.67315 12.42531 13.23942 13.96645 14.65257 15.24576 15.74363 16.14434 16.38306 16.54531 16.64019 16.72533 16.71198 16.60775 16.33194 15.90465 15.50849 15.26134 15.23144 15.37661 15.77621 16.43199 17.23956 18.0763 18.88521 19.95482 20.64758 21.275 21.86953 22.43636 23.00944 23.62595 24.28369 24.99844 25.80561 26.68707 27.63183 28.55526 29.41386 30.07928 30.43914 30.56474 30.58716 30.66443 30.99486 31.63341 32.62946 33.85243 35.21803 36.63494 38.0252 39.30824 40.38335 41.25299 42.00787 42.71372 43.40307 44.10741 45.42956 47.05618 49.48326 52.44014 55.40947 58.23675 61.26327 64.58701 68.32307 72.13037 75.90488 79.47299 82.98932 86.11311 88.43622 89.6217 90.2052 91.50064 94.6343 99.36446 103.6575 106.051 106.648 105.4184 102.3225 97.97123 93.38889 88.57382 83.04402 78.77463 76.49641 76.18341 76.0695 76.24848 77.01537 78.72529 81.30567 83.86633 85.92126 87.27378 87.66783 87.04321 85.53476 83.4782 81.17412 80.07973 81.67769 85.55041 90.29668 94.5006 99.04155 103.5041 107.3652 110.0121 111.8267 113.1007 114.1971 115.4776 117.3172 119.3256 121.1329 122.5455 123.8178 125.6891 127.9865 130.6772 138.8535 138.9292 138.5776 138.9199 140.9086 145.0028 150.1769 155.2752 159.6249
0 0 0 0 0 0 0 0 0 0 0 0 0 0 0 0 0 0 0 0 0 0 0 0 0 0 0 0 0 0 0 0 0 0 0 0 0 0 0 0 0 0 0 0 0 0 0 0 0 0 0 0 0 0 0 0 0 0 0 0 0 0 0 0 0 0 0 0 0 0 0 0 0 0 0 0 0 0 0 0 0 0 0 0 0 0 0 0 0 0 0 0 0 0 0 0 0 0 0 0 0 0 0 0 0 0 0 0 0 0 0 0 0 0 0 0 0 0 0 0 0 0 0 0 0 0 0 0 0 0 0 0 0 0 0 0 0 0 0 0 0 0 0 0 0 0 0 0 0 0 0 0 0 0 0 0 0 0 0 0 0 0 0 0 0 0 0 0 0 0 0 0 0 0 0 0.0003056246 0.1002038 0.200102 0.3 0.3 0.3 0.3 0.3 0.3 0.3 0.3 0.3 0.333028 0.3917571 0.4572757 0.513343 0.5554352 0.6092457 0.6408493 0.6914999 0.7221125 0.7697525 0.799366 0.962855 0.9922718 1.035062 1.063349 1.091571 1.109149 1.105053 1.076325 1.038001 0.9930689 0.9168583 0.8139657 0.7110602 0.5469062 0.4070061 0.3023469 0.3 0.3 0.3 0.3 0.3 0.3 0.3 0.3 0.3 0.3 0.3 0.3 0.3 0.3 0.3 0.3 0.3 0.3 0.2996557 0.233057 0.1664582 0.1 0.1 0.1 0.1 0.1 0.1 0.1663994 0.2329981 0.2995968 0.3 0.3 0.3 0.3 0.3 0.3 0.3 0.3 0.3 0.3 0.3 0.3 0.3 0.3 0.3 0.3 0.3 0.3 0.3 0.3 0.3 0.3 0.3 0.3 0.3 0.3 0.3 0.3 0.3 0.3 0.3 0.3 0.3 0.3 0.3 0.3 0.3 0.3 0.3 0.3 0.3 0.3 0.3 0.3 0.3 0.3 0.3 0.3 0.3 0.3 0.262437 0.1986275 0.1340341 0.1 0.1 0.1 0.2128182 0.4112641 0.6543878 0.8524482 1.026362 1.214772 1.405304 1.59784 1.797566 2.030255 2.26335 2.527062 2.760413 2.995493 3.396137 3.625875 3.854219 4.085228 4.32196 4.593322 4.917268 5.240507 5.59416 5.957175 6.352809 6.736987 7.086533 7.368563 7.614272 7.856892 8.146828 8.627191 8.904989 9.168479 9.432957 9.759302 10.16153 10.7104 11.31797 12.04728 12.80912 13.58906 14.3112 14.93377 15.46334 15.92496 16.32181 16.58459 16.74732 16.81377 16.87989 16.93177 16.91448 16.85462 16.60985 16.34399 16.037 15.93292 16.03473 16.42552 17.00082 17.70562 18.4548 19.22655 20.25862 20.93519 21.57299 22.21816 22.81026 23.43444 24.06765 24.75696 25.48649 26.27455 27.15709 28.07608 29.03033 29.95963 30.85248 31.53754 31.9634 32.17564 32.31691 32.68547 33.32778 34.28306 35.36485 36.55685 37.81745 39.05589 40.16255 41.09183 41.8491 42.54599 43.17616 43.82573 44.48005 46.21255 47.98743 50.46515 53.20522 55.94778 58.59289 61.65421 65.24624 69.2952 73.38359 77.44921 81.58642 85.62457 89.03165 91.25333 92.16158 92.41547 93.62431 97.29523 101.7697 105.285 106.4505 106.3573 105.024 102.0225 98.15984 94.17076 89.63747 84.16546 79.39683 76.78685 76.28316 76.25038 76.54852 77.96563 80.4207 83.64558 86.55688 88.8898 90.45582 91.1422 90.869 89.67245 87.94407 86.14349 85.17213 85.79438 87.89282 91.31852 95.56267 100.8232 105.7777 109.7416 112.7426 115.16 117.0991 118.5836 120.0764 121.9512 123.9459 125.9514 127.838 129.9385 132.454 135.2207 137.6488 147.1743 147.0995 146.3122 145.7863 146.2601 148.3614 151.7519 155.816 159.8297
0 0 0 0 0 0 0 0 0 0 0 0 0 0 0 0 0 0 0 0 0 0 0 0 0 0 0 0 0 0 0 0 0 0 0 0 0 0 0 0 0 0 0 0 0 0 0 0 0 0 0 0 0 0 0 0 0 0 0 0 0 0 0 0 0 0 0 0 0 0 0 0 0 0 0 0 0 0 0 0 0 0 0 0 0 0 0 0 0 0 0 0 0 0 0 0 0 0 0 0 0 0 0 0 0 0 0 0 0 0 0 0 0 0 0 0 0 0 0 0 0 0 0 0 0 0 0 0 0 0 0 0 0 0 0 0 0 0 0 0 0 0 0 0 0 0 0 0 0 0 0 0 0 0 0 0 0 0 0 0 0 0 0 0 0 0 0 0 0 0 0 0 0 0 0 0.003314097 0.1032123 0.2031105 0.3 0.3 0.3 0.3 0.3 0.3 0.3 0.3 0.3013383 0.3613877 0.4274948 0.5172352 0.5816561 0.6357394 0.6988033 0.729589 0.7927207 0.8234386 0.8866382 0.9171088 1.081456 1.113041 1.175373 1.205665 1.234766 1.231759 1.228751 1.224655 1.187293 1.116665 1.01376 0.9108544 0.8078504 0.7006376 0.5314515 0.3975474 0.3 0.3 0.3 0.3 0.3 0.3 0.3 0.3 0.3 0.3 0.3 0.3 0.3 0.3 0.3 0.3 0.3 0.2988527 0.268023 0.2034293 0.1396864 0.1 0.1 0.1 0.1 0.1 0.1018066 0.1684053 0.2350041 0.3 0.3 0.3 0.3 0.3 0.3 0.3 0.3 0.3 0.3 0.3 0.3 0.3 0.3 0.3 0.3 0.3 0.3 0.3 0.3 0.3 0.3 0.3 0.3 0.3 0.3 0.3 0.3 0.3 0.3 0.3 0.3 0.3 0.3 0.3 0.3 0.3 0.3 0.3 0.3 0.3 0.3 0.3 0.3 0.3 0.3 0.3 0.3 0.3 0.3 0.2997909 0.2331922 0.1665936 0.1 0.1 0.1008574 0.1320946 0.2650257 0.463874 0.7048088 0.9046047 1.10387 1.278388 1.443882 1.60989 1.804181 2.037277 2.270372 2.502972 2.703212 2.936121 3.170593 3.434046 3.666436 3.927758 4.159068 4.417682 4.681296 4.985916 5.317024 5.681373 6.068159 6.464743 6.861327 7.244097 7.558359 7.837303 8.081325 8.439437 8.688172 8.986417 9.265384 9.59684 9.950389 10.39069 10.9376 11.61291 12.37649 13.15928 13.87799 14.56425 15.12289 15.6445 16.03806 16.36826 16.63317 16.82894 16.95278 17.04395 17.10567 17.20729 17.2239 17.17086 17.08411 16.98024 16.91825 16.9464 17.19887 17.63394 18.22787 18.87836 19.95261 20.59352 21.26284 21.9172 22.5383 23.12702 23.73969 24.3961 25.08611 25.83574 26.62087 27.46509 28.34852 29.26628 30.257 31.26521 32.22881 32.86584 33.32239 33.69884 34.2941 35.05791 35.97874 36.97555 38.05127 39.17573 40.25241 41.17329 41.95862 42.62527 43.24324 43.80326 44.38092 46.28772 47.72445 49.6419 51.87686 54.19987 56.44622 58.70966 61.68826 65.56518 70.11331 74.6616 79.0363 83.61839 88.03095 91.94754 94.55335 95.78165 95.74817 96.54086 98.59688 102.2757 104.8905 106.0119 105.4079 103.8144 101.1136 97.77416 94.36867 90.05473 84.68108 79.63466 76.84264 76.22614 76.36069 77.42649 79.6709 83.07552 86.47493 89.30339 91.29654 92.54168 93.03849 93.00067 92.34055 90.95645 89.60882 88.38242 88.15115 88.88199 91.42634 95.78171 101.262 106.558 111.217 115.1023 118.4832 120.8216 122.3608 123.6687 125.3804 127.4806 129.8759 132.4447 135.6771 139.3507 143.1213 152.763 154.1178 154.4969 154.0526 153.0828 151.981 151.8929 153.5929 156.7612
0 0 0 0 0 0 0 0 0 0 0 0 0 0 0 0 0 0 0 0 0 0 0 0 0 0 0 0 0 0 0 0 0 0 0 0 0 0 0 0 0 0 0 0 0 0 0 0 0 0 0 0 0 0 0 0 0 0 0 0 0 0 0 0 0 0 0 0 0 0 0 0 0 0 0 0 0 0 0 0 0 0 0 0 0 0 0 0 0 0 0 0 0 0 0 0 0 0 0 0 0 0 0 0 0 0 0 0 0 0 0 0 0 0 0 0 0 0 0 0 0 0 0 0 0 0 0 0 0 0 0 0 0 0 0 0 0 0 0 0 0 0 0 0 0 0 0 0 0 0 0 0 0 0 0 0 0 0 0 0 0 0 0 0 0 0 0 0 0 0 0 0 0 0 0 0.006322666 0.1062209 0.206119 0.3 0.3 0.3 0.3 0.3 0.3 0.3 0.3 0.3034685 0.3714254 0.4639553 0.5612186 0.626815 0.6934727 0.7790826 0.8314921 0.8936208 0.9253417 0.9875383 1.019191 1.182356 1.214944 1.276273 1.306565 1.334663 1.331656 1.328649 1.323549 1.285184 1.213554 1.110648 1.007476 0.8993801 0.7602575 0.5589244 0.3950372 0.3 0.3 0.3 0.3 0.3 0.3 0.3 0.3 0.3 0.3 0.3 0.3 0.3 0.3 0.3 0.3 0.3 0.295576 0.2289772 0.1623785 0.1 0.1 0.1 0.1 0.1 0.1009036 0.1173307 0.1819244 0.2459937 0.3 0.3 0.3 0.3 0.3 0.3 0.3 0.3 0.3 0.3 0.3 0.3 0.3 0.3 0.3 0.3 0.3 0.3 0.3 0.3 0.3 0.3 0.3 0.3 0.3 0.3 0.3 0.3 0.3 0.3 0.3 0.3 0.3 0.3 0.3 0.3 0.3 0.3 0.3 0.3 0.3 0.3 0.3 0.3 0.3 0.3 0.3 0.3 0.3 0.3 0.2977848 0.2311862 0.1645875 0.1 0.1 0.1047665 0.1893113 0.3383836 0.5469604 0.7326171 0.920277 1.110419 1.308931 1.482197 1.647691 1.816137 2.044298 2.277393 2.50899 2.708838 2.910182 3.143975 3.381162 3.646798 3.915191 4.205238 4.470629 4.737214 5.037062 5.371003 5.760033 6.158332 6.576018 6.952185 7.328448 7.641613 7.939534 8.173481 8.434164 8.729727 9.01507 9.304774 9.642139 10.04758 10.54836 11.16042 11.9001 12.69433 13.46393 14.16387 14.81411 15.36426 15.8175 16.17753 16.43979 16.6396 16.80857 16.97124 17.09961 17.22085 17.34954 17.43086 17.49874 17.52929 17.58616 17.6385 17.74054 17.96157 18.30394 18.77999 19.33058 20.35162 20.94648 21.60765 22.25267 22.88833 23.49074 24.10235 24.75877 25.44813 26.16424 26.90876 27.65391 28.42901 29.18222 29.95437 30.93164 32.00792 33.09037 33.98574 34.84908 35.7152 36.64728 37.62166 38.63206 39.6552 40.61832 41.52248 42.27214 42.94016 43.51554 44.04988 44.57651 45.27621 48.52992 50.20855 52.02284 53.77432 55.39445 56.97154 58.8094 61.74576 65.83426 70.79192 75.72642 80.56414 85.41647 90.244 94.57518 97.97151 99.62828 100.0761 100.0239 100.7581 102.1903 103.543 104.0944 103.4837 101.9327 99.6656 96.98582 94.09734 89.96626 84.62376 79.61934 76.82478 76.28559 76.93709 78.89284 82.12704 86.00967 89.24165 91.51147 93.01346 93.90577 94.40609 94.38269 93.81985 92.77821 91.2773 89.95781 89.00838 89.47334 91.54646 95.71262 101.0004 106.4932 111.927 116.8584 120.7654 123.2108 124.7318 126.2562 128.192 130.4961 133.2052 136.7236 141.2595 146.0666 150.1521 156.5469 158.0687 158.9976 159.1429 158.5195 157.3369 156.398 156.886 158.9312
0 0 0 0 0 0 0 0 0 0 0 0 0 0 0 0 0 0 0 0 0 0 0 0 0 0 0 0 0 0 0 0 0 0 0 0 0 0 0 0 0 0 0 0 0 0 0 0 0 0 0 0 0 0 0 0 0 0 0 0 0 0 0 0 0 0 0 0 0 0 0 0 0 0 0 0 0 0 0 0 0 0 0 0 0 0 0 0 0 0 0 0 0 0 0 0 0 0 0 0 0 0 0 0 0 0 0 0 0 0 0 0 0 0 0 0 0 0 0 0 0 0 0 0 0 0 0 0 0 0 0 0 0 0 0 0 0 0 0 0 0 0 0 0 0 0 0 0 0 0 0 0 0 0 0 0 0 0 0 0 0 0 0 0 0 0 0 0 0 0 0 0 0 0 0 0.009331264 0.1092295 0.2091276 0.3 0.3 0.3 0.3 0.3 0.3 0.3 0.3047545 0.3606612 0.4279583 0.5238025 0.5984672 0.687544 0.7737069 0.8482246 0.9128186 0.9763948 1.027245 1.088438 1.121094 1.253749 1.300882 1.351448 1.394943 1.424145 1.431553 1.428546 1.422443 1.383075 1.310442 1.207042 1.096769 0.958159 0.8137443 0.5901999 0.423519 0.3 0.3 0.3 0.3 0.3 0.3 0.3 0.3 0.3 0.3 0.3 0.3 0.3 0.3 0.3 0.3 0.3 0.2620754 0.1974817 0.1354828 0.1 0.1 0.1 0.1 0.1 0.1058864 0.1724851 0.2390838 0.3 0.3 0.3 0.3 0.3 0.3 0.3 0.3 0.3 0.3 0.3 0.3 0.3 0.3 0.3 0.3 0.3 0.3 0.3 0.3 0.3 0.3 0.3 0.3 0.3 0.3 0.3 0.3 0.3 0.3 0.3 0.3 0.3 0.3 0.3 0.3 0.3 0.3 0.3 0.3 0.3 0.3 0.3 0.3 0.3 0.3 0.3 0.3 0.3 0.3 0.3 0.2957788 0.2291801 0.1625815 0.1 0.1 0.1088308 0.2145479 0.3867956 0.6152449 0.7928085 0.9675234 1.134002 1.323727 1.513357 1.679854 1.848954 2.051319 2.284415 2.515008 2.717272 2.950367 3.184931 3.446283 3.682444 3.948103 4.218106 4.486336 4.781282 5.109139 5.48841 5.860638 6.235541 6.622275 6.987348 7.330374 7.611657 7.878827 8.149573 8.442322 8.756857 9.034322 9.292874 9.619961 10.02437 10.59844 11.25175 12.02847 12.83645 13.66824 14.4266 15.04941 15.53308 15.89265 16.21851 16.47969 16.67624 16.84173 17.00698 17.1659 17.29535 17.40121 17.52568 17.6491 17.78257 17.90034 18.03892 18.22257 18.50326 18.86675 19.30677 19.7957 20.75339 21.34044 21.96009 22.58038 23.20867 23.82156 24.45996 25.11976 25.80353 26.48835 27.16318 27.81516 28.44131 29.04278 29.6919 30.60967 31.79611 33.21838 34.57781 35.87766 37.09462 38.24497 39.33133 40.317 41.25103 42.07076 42.82775 43.45232 44.01463 44.49271 45.06506 45.88607 47.05412 51.85524 53.47748 54.83473 55.9648 56.74638 57.67223 59.05229 61.93832 66.24987 71.5088 76.73126 81.77946 86.82093 91.9012 97.01562 101.3798 103.8689 104.1946 103.2735 102.6092 102.4617 102.617 102.4648 101.6826 100.2158 98.24403 96.00072 93.39799 89.45368 84.26542 79.48225 76.86047 76.32505 78.21588 81.10249 85.05678 88.81621 91.59215 93.35274 94.45267 95.26455 95.72353 95.72573 95.27223 94.28798 92.78079 91.24959 90.03834 90.04662 91.64216 95.36308 100.394 106.0433 111.8419 117.3408 121.5927 124.3214 126.1004 128.0826 130.2861 132.7921 136.1587 141.0226 146.5148 151.2638 154.4428 159.4272 161.6264 163.3624 164.1978 164.0079 162.9647 161.8758 161.4239 162.0909
0 0 0 0 0 0 0 0 0 0 0 0 0 0 0 0 0 0 0 0 0 0 0 0 0 0 0 0 0 0 0 0 0 0 0 0 0 0 0 0 0 0 0 0 0 0 0 0 0 0 0 0 0 0 0 0 0 0 0 0 0 0 0 0 0 0 0 0 0 0 0 0 0 0 0 0 0 0 0 0 0 0 0 0 0 0 0 0 0 0 0 0 0 0 0 0 0 0 0 0 0 0 0 0 0 0 0 0 0 0 0 0 0 0 0 0 0 0 0 0 0 0 0 0 0 0 0 0 0 0 0 0 0 0 0 0 0 0 0 0 0 0 0 0 0 0 0 0 0 0 0 0 0 0 0 0 0 0 0 0 0 0 0 0 0 0 0 0 0 0 0 0 0 0 0.002334645 0.02809734 0.1249883 0.2206968 0.3 0.3 0.3 0.3 0.3 0.3 0.3 0.3075479 0.3772388 0.4739609 0.5917863 0.6573386 0.7318158 0.8095556 0.8975697 0.9814225 1.046016 1.1087 1.156058 1.204795 1.321825 1.381115 1.415674 1.475032 1.505324 1.53145 1.528443 1.521338 1.480055 1.400074 1.288831 1.146856 0.9803592 0.8177565 0.6806988 0.5180282 0.3871774 0.3 0.3 0.3 0.3 0.3 0.3 0.3 0.3 0.3 0.3 0.3 0.3 0.3 0.3 0.3 0.2967349 0.2248975 0.1582988 0.1 0.1 0.1 0.1 0.1 0.1 0.1078923 0.174491 0.2410898 0.3 0.3 0.3 0.3 0.3 0.3 0.3 0.3 0.3 0.3 0.3 0.3 0.3 0.3 0.3 0.3 0.3 0.3 0.3 0.3 0.3 0.3 0.3 0.3 0.3 0.3 0.3 0.3 0.3 0.3 0.3 0.3 0.3 0.3 0.3 0.3 0.3 0.3 0.3 0.3 0.3 0.3 0.3 0.3 0.3 0.3 0.3 0.3 0.3 0.3 0.3 0.2937727 0.2271741 0.1605754 0.1 0.1 0.1118399 0.2195631 0.3938169 0.6230676 0.8228635 1.018883 1.18538 1.351876 1.518373 1.684869 1.854972 2.058341 2.291436 2.521027 2.724293 2.957388 3.193886 3.456912 3.693341 3.959736 4.228916 4.523175 4.825065 5.160971 5.534432 5.900724 6.264959 6.609962 6.952144 7.246093 7.516801 7.792754 8.112144 8.437073 8.737139 9.018102 9.250814 9.560645 9.943807 10.52578 11.21113 12.01888 12.8599 13.72428 14.51843 15.16825 15.62689 15.95619 16.22556 16.48958 16.71147 16.84941 17.01307 17.15062 17.28429 17.41231 17.55019 17.72874 17.87307 18.05122 18.24477 18.52763 18.86516 19.2757 19.7176 20.21116 21.12432 21.73415 22.35929 22.99178 23.59257 24.19024 24.7836 25.42912 26.07665 26.71938 27.30487 27.89624 28.48795 29.08149 29.70137 30.6311 31.95944 33.64791 35.36743 36.99898 38.50752 39.82359 40.98217 41.98165 42.86192 43.61072 44.22926 44.76271 45.40635 46.20877 47.28724 48.6048 50.18942 55.56777 56.81715 57.70155 58.27904 58.54743 58.91191 59.88308 62.60477 67.02156 72.46362 77.7799 82.91255 88.0243 93.29437 98.91887 103.4175 106.0792 106.251 105.3462 104.0517 102.9154 102.0385 101.247 100.157 98.70659 96.91885 94.86896 92.27605 88.38041 83.57397 79.22517 76.92401 76.68345 80.35665 83.78175 87.67239 90.95968 93.32404 94.82419 95.95438 96.78938 97.31672 97.51563 97.20222 96.22983 94.58097 92.7245 91.34902 90.99812 92.22838 95.36061 99.96227 105.4082 111.3218 117.1545 121.7367 124.8032 126.8792 129.1734 131.6046 134.3747 138.7448 144.5514 150.3251 154.4239 157.061 161.7857 164.4425 166.5416 167.7988 168.0806 167.5184 166.5099 165.2562 164.7485
0 0 0 0 0 0 0 0 0 0 0 0 0 0 0 0 0 0 0 0 0 0 0 0 0 0 0 0 0 0 0 0 0 0 0 0 0 0 0 0 0 0 0 0 0 0 0 0 0 0 0 0 0 0 0 0 0 0 0 0 0 0 0 0 0 0 0 0 0 0 0 0 0 0 0 0 0 0 0 0 0 0 0 0 0 0 0 0 0 0 0 0 0 0 0 0 0 0 0 0 0 0 0 0 0 0 0 0 0 0 0 0 0 0 0 0 0 0 0 0 0 0 0 0 0 0 0 0 0 0 0 0 0 0 0 0 0 0 0 0 0 0 0 0 0 0 0 0 0 0 0 0 0 0 0 0 0 0 0 0 0 0 0 0 0 0 0 0 0 0 0 0 0 0 0.01545026 0.1153485 0.2152467 0.3 0.3 0.3 0.3 0.3 0.3 0.3 0.3 0.3095537 0.3808953 0.4855024 0.6129292 0.70388 0.7928281 0.8781692 0.9537092 1.029518 1.095115 1.158737 1.210475 1.272862 1.40579 1.455398 1.501993 1.552981 1.594773 1.620898 1.615983 1.592315 1.536583 1.434629 1.303717 1.141842 0.9753447 0.8133879 0.6742573 0.5135921 0.3856142 0.3 0.3 0.3 0.3 0.3 0.3 0.3 0.3 0.3 0.3 0.3 0.3 0.3 0.3 0.3 0.2914963 0.2228916 0.1562929 0.1 0.1 0.1 0.1 0.1 0.1025896 0.1252156 0.1898093 0.2527472 0.3 0.3 0.3 0.3 0.3 0.3 0.3 0.3 0.3 0.3 0.3 0.3 0.3 0.3 0.3 0.3 0.3 0.3 0.3 0.3 0.3 0.3 0.3 0.3 0.3 0.3 0.3 0.3 0.3 0.3 0.3 0.3 0.3 0.3 0.3 0.3 0.3 0.3 0.3 0.3 0.3 0.3 0.3 0.3 0.3 0.3 0.3 0.3 0.3 0.3 0.3 0.2917667 0.225168 0.1585694 0.1 0.1 0.117092 0.240761 0.4270388 0.6515219 0.8383746 1.025345 1.199485 1.364979 1.530473 1.695967 1.86607 2.068879 2.298457 2.527045 2.731171 2.964343 3.20191 3.46805 3.731758 3.997149 4.266811 4.568981 4.894776 5.223585 5.545466 5.911758 6.276714 6.623178 6.911612 7.179009 7.450336 7.754927 8.09089 8.344428 8.617085 8.86872 9.089718 9.402717 9.782619 10.35945 11.04381 11.85558 12.69975 13.56391 14.38014 15.03676 15.52333 15.85681 16.12809 16.36623 16.60268 16.82382 16.99085 17.14993 17.28654 17.43966 17.5514 17.70613 17.89617 18.14352 18.41114 18.72495 19.09717 19.54873 20.03448 20.56258 21.41786 22.05697 22.71013 23.37112 23.99177 24.60932 25.20797 25.81812 26.42304 27.02038 27.58454 28.18186 28.78379 29.40646 30.05475 31.09207 32.5621 34.43858 36.33026 38.16356 39.84793 41.32003 42.55959 43.56029 44.42081 45.28322 46.24386 47.29216 48.44321 49.69264 51.12622 52.62991 54.16283 59.1 59.81171 60.33245 60.63503 60.66733 60.64139 61.32142 63.92381 68.29381 73.64105 78.74419 83.83869 88.95866 94.40654 99.89745 104.0892 106.2843 106.5831 105.8866 104.5812 102.9269 101.5255 100.3082 99.00719 97.45004 95.70119 93.73645 91.07544 87.20711 82.74005 78.98042 77.44102 77.99354 82.97748 86.28757 89.70852 92.56467 94.59763 96.09993 97.37893 98.48445 99.32944 99.83421 99.78715 99.05451 97.59235 95.6619 94.06376 93.37036 94.16299 96.81936 100.6214 105.2752 110.5536 116.3748 121.3557 124.8512 127.1846 129.7074 132.4297 135.9166 141.1286 147.1801 152.6113 156.2046 158.9649 163.242 166.0947 168.1516 169.3103 169.7005 169.5592 168.8405 167.6572 166.645
0 0 0 0 0 0 0 0 0 0 0 0 0 0 0 0 0 0 0 0 0 0 0 0 0 0 0 0 0 0 0 0 0 0 0 0 0 0 0 0 0 0 0 0 0 0 0 0 0 0 0 0 0 0 0 0 0 0 0 0 0 0 0 0 0 0 0 0 0 0 0 0 0 0 0 0 0 0 0 0 0 0 0 0 0 0 0 0 0 0 0 0 0 0 0 0 0 0 0 0 0 0 0 0 0 0 0 0 0 0 0 0 0 0 0 0 0 0 0 0 0 0 0 0 0 0 0 0 0 0 0 0 0 0 0 0 0 0 0 0 0 0 0 0 0 0 0 0 0 0 0 0 0 0 0 0 0 0 0 0 0 0 0 0 0 0 0 0 0 0 0 0 0 0 0.01845885 0.1183571 0.2182553 0.3 0.3 0.3 0.3 0.3 0.3 0.3 0.3 0.3164998 0.4113946 0.5160022 0.6381783 0.7169318 0.81683 0.9149124 1.002798 1.085297 1.149891 1.214485 1.279079 1.343673 1.439675 1.479282 1.539607 1.579146 1.637414 1.656252 1.644979 1.574819 1.481791 1.380733 1.27059 1.132427 0.9669325 0.801438 0.6361887 0.4767398 0.3555761 0.3 0.3 0.3 0.3 0.3 0.3 0.3 0.3 0.3 0.3 0.3 0.3 0.3 0.3 0.3 0.2894904 0.1895969 0.130441 0.1 0.1 0.1 0.1 0.1 0.1119721 0.1785708 0.2463452 0.3056194 0.3046168 0.3029837 0.3 0.3 0.3 0.3 0.3 0.3 0.3 0.3 0.3 0.3 0.3 0.3 0.3 0.3 0.3 0.3 0.3 0.3 0.3 0.3 0.3 0.3 0.3 0.3 0.3 0.3 0.3 0.3 0.3 0.3 0.3 0.3 0.3 0.3 0.3 0.3 0.3 0.3 0.3 0.3 0.3 0.3 0.3 0.3 0.3 0.3 0.3 0.3 0.3 0.2897606 0.223162 0.1565633 0.1 0.1057738 0.1539532 0.2969827 0.4983514 0.7079835 0.8734775 1.043009 1.228743 1.39524 1.561736 1.729258 1.905387 2.104181 2.308518 2.535437 2.735098 2.938193 3.177572 3.450026 3.747588 4.043146 4.337489 4.636118 4.940944 5.246533 5.552749 5.892308 6.21868 6.558162 6.848726 7.134407 7.407739 7.711791 8.030632 8.195075 8.416609 8.628367 8.853378 9.172487 9.573371 10.12042 10.77254 11.56827 12.40469 13.24772 14.04657 14.73041 15.22316 15.56679 15.87856 16.18525 16.47219 16.67805 16.87434 17.04411 17.20958 17.37702 17.53185 17.69677 17.90301 18.15867 18.48074 18.81357 19.22646 19.70194 20.25136 20.81814 21.64892 22.35896 23.07784 23.78358 24.43338 25.04855 25.64308 26.20976 26.7543 27.28242 27.84493 28.47135 29.13362 29.83388 30.71711 31.93002 33.54585 35.43565 37.43031 39.40443 41.26686 42.85786 44.16615 45.30422 46.5586 48.01451 49.56818 51.11175 52.62014 54.10294 55.57639 56.96288 58.17309 61.79454 62.19854 62.4331 62.58507 62.61661 62.71777 63.60662 66.20313 70.21018 74.89423 79.50407 84.34626 89.37589 94.50806 99.66255 103.7547 106.131 106.5716 105.833 104.4085 102.5841 100.9056 99.43541 97.95673 96.36816 94.63821 92.69143 90.04699 86.7895 83.23304 80.43055 79.48568 80.40138 85.62302 88.42728 91.28966 93.82618 95.76733 97.42323 98.95015 100.3397 101.5458 102.3616 102.7131 102.4908 101.6563 100.3529 98.93536 97.83459 97.71492 98.95374 101.5121 104.9375 109.4959 114.9538 120.1077 123.874 126.6183 129.473 132.7067 136.8682 142.5568 148.6545 153.7592 157.1376 160.1261 163.811 166.6842 168.8437 170.104 170.8078 171.0043 170.5927 169.5117 168.1439
0 0 0 0 0 0 0 0 0 0 0 0 0 0 0 0 0 0 0 0 0 0 0 0 0 0 0 0 0 0 0 0 0 0 0 0 0 0 0 0 0 0 0 0 0 0 0 0 0 0 0 0 0 0 0 0 0 0 0 0 0 0 0 0 0 0 0 0 0 0 0 0 0 0 0 0 0 0 0 0 0 0 0 0 0 0 0 0 0 0 0 0 0 0 0 0 0 0 0 0 0 0 0 0 0 0 0 0 0 0 0 0 0 0 0 0 0 0 0 0 0 0 0 0 0 0 0 0 0 0 0 0 0 0 0 0 0 0 0 0 0 0 0 0 0 0 0 0 0 0 0 0 0 0 0 0 0 0 0 0 0 0 0 0 0 0 0 0 0 0 0 0 0 0 0.02146745 0.1213657 0.2212639 0.3 0.3 0.3 0.3 0.3 0.3 0.3 0.3120494 0.3772654 0.4807175 0.6008918 0.702699 0.7932878 0.8855271 0.9601955 1.036867 1.117015 1.199058 1.264654 1.326899 1.379417 1.440678 1.481287 1.54061 1.578461 1.62195 1.620718 1.600296 1.533916 1.456662 1.354078 1.227911 1.09066 0.9286188 0.7636133 0.6058573 0.4795678 0.3857512 0.325252 0.3 0.3 0.3 0.3 0.3 0.3 0.3 0.3 0.3 0.3 0.3 0.3 0.3 0.2933373 0.2541906 0.1522132 0.1 0.1 0.1 0.1 0.1 0.1 0.113978 0.1805767 0.2540965 0.3333334 0.3333334 0.3265142 0.3 0.3 0.3 0.3 0.3 0.3 0.3 0.3 0.3 0.3 0.3 0.3 0.3 0.3 0.3 0.3 0.3 0.3 0.3 0.3 0.3 0.3 0.3 0.3 0.3 0.3 0.3 0.3 0.3 0.3 0.3 0.3 0.3 0.3 0.3 0.3 0.3 0.3 0.3 0.3 0.3 0.3 0.3 0.3 0.3 0.3 0.3 0.3 0.2922105 0.247586 0.1829926 0.1249669 0.1 0.1139795 0.1944896 0.3415304 0.5413263 0.7342685 0.9007652 1.067262 1.233758 1.400255 1.566752 1.739898 1.940688 2.144289 2.351844 2.582543 2.812829 3.045112 3.28161 3.545381 3.811967 4.080556 4.35648 4.651059 4.929554 5.230251 5.537087 5.864977 6.167683 6.478405 6.780104 7.079288 7.365202 7.648807 7.931547 7.985693 8.192523 8.39717 8.632737 8.946326 9.324249 9.825976 10.40981 11.11218 11.88588 12.71087 13.50368 14.19552 14.75683 15.17386 15.52067 15.84431 16.20481 16.50458 16.77569 16.94519 17.10459 17.23116 17.4073 17.60471 17.82295 18.11047 18.43943 18.84315 19.28873 19.80253 20.37268 20.98087 21.90176 22.68517 23.4665 24.23227 24.9346 25.55552 26.0962 26.60043 27.09691 27.60543 28.13367 28.72809 29.42261 30.33739 31.52312 32.97948 34.61545 36.41824 38.3885 40.48096 42.5317 44.40956 46.09317 47.69613 49.43084 51.34801 53.30055 55.14141 56.83976 58.3579 59.61001 60.52133 61.25663 63.53772 63.74663 63.86931 64.03325 64.30554 64.90433 66.27037 68.8134 72.0871 75.85154 79.83801 84.3576 88.98964 93.67384 98.48734 102.883 105.6359 106.2186 105.2286 103.6555 101.8839 100.1991 98.65592 97.08212 95.43856 93.71011 91.90661 89.66734 87.22488 84.82744 83.18618 82.7162 83.55758 88.19669 90.37233 92.77468 95.07859 97.10963 98.95213 100.6785 102.2477 103.671 104.7689 105.4298 105.5792 105.2365 104.5001 103.6206 102.6386 102.1109 102.1799 103.1954 105.0525 108.2725 112.8318 117.9536 122.221 125.6577 128.895 132.5046 137.0483 142.9409 149.0539 154.0993 157.514 160.5951 163.6702 166.6713 169.0157 170.6124 171.7171 172.311 172.3169 171.5998 170.451
0 0 0 0 0 0 0 0 0 0 0 0 0 0 0 0 0 0 0 0 0 0 0 0 0 0 0 0 0 0 0 0 0 0 0 0 0 0 0 0 0 0 0 0 0 0 0 0 0 0 0 0 0 0 0 0 0 0 0 0 0 0 0 0 0 0 0 0 0 0 0 0 0 0 0 0 0 0 0 0 0 0 0 0 0 0 0 0 0 0 0 0 0 0 0 0 0 0 0 0 0 0 0 0 0 0 0 0 0 0 0 0 0 0 0 0 0 0 0 0 0 0 0 0 0 0 0 0 0 0 0 0 0 0 0 0 0 0 0 0 0 0 0 0 0 0 0 0 0 0 0 0 0 0 0 0 0 0 0 0 0 0 0 0 0 0 0 0 0 0 0 0 0 0 0.02447604 0.1243743 0.2242725 0.3 0.3 0.3 0.3 0.3 0.3 0.3 0.3156388 0.390023 0.4976728 0.6231527 0.723051 0.8229492 0.9205807 1.00424 1.069837 1.138347 1.21496 1.281559 1.340746 1.381423 1.457039 1.490489 1.524942 1.547154 1.565954 1.563322 1.533975 1.469359 1.375773 1.274346 1.162635 1.029404 0.8877692 0.7327167 0.6008343 0.4843241 0.4170445 0.3572133 0.3235348 0.3 0.3 0.3 0.3 0.3 0.3 0.3 0.3 0.3 0.3 0.3 0.3 0.2854107 0.218812 0.1267467 0.1 0.1 0.1 0.1 0.1 0.1 0.1159839 0.1825826 0.2571053 0.3333334 0.3333334 0.3255112 0.3 0.3 0.3 0.3 0.3 0.3 0.3 0.3 0.3 0.3 0.3 0.3 0.3 0.3 0.3 0.3 0.3 0.3 0.3 0.3 0.3 0.3 0.3 0.3 0.3 0.3 0.3 0.3 0.3 0.3 0.3 0.3 0.3 0.3 0.3 0.3 0.3 0.3 0.3 0.3 0.3 0.3 0.3 0.3 0.3 0.3 0.3 0.3 0.2856805 0.2190818 0.1524832 0.1 0.1 0.1159855 0.1985017 0.3475486 0.5442678 0.727289 0.8947883 1.064622 1.238774 1.40527 1.571767 1.745916 1.953331 2.186426 2.419521 2.6451 2.844896 3.05214 3.285467 3.527754 3.795151 4.062548 4.331048 4.609324 4.905284 5.20598 5.503417 5.799128 6.119135 6.420835 6.718274 7.000944 7.27868 7.528482 7.764315 7.736956 7.937614 8.171929 8.441483 8.760158 9.098118 9.523313 10.0228 10.62579 11.30444 12.0192 12.74045 13.38081 13.9744 14.55278 15.06667 15.51475 15.85902 16.19338 16.48706 16.71396 16.90148 17.04319 17.22276 17.42857 17.6455 17.9161 18.2515 18.7051 19.21629 19.78671 20.42565 21.13781 22.18492 23.12625 23.99224 24.80065 25.49543 26.1363 26.65902 27.11116 27.51981 27.95955 28.44806 28.99046 29.68568 30.6973 32.06749 33.728 35.52641 37.416 39.39239 41.40608 43.44611 45.57568 47.7523 49.94094 52.23594 54.58015 56.90174 58.87198 60.45832 61.6283 62.44699 62.92854 63.27985 65.23689 65.17577 65.17968 65.36785 65.90192 66.9153 68.62666 70.90903 73.54765 76.53246 80.01428 84.12834 88.38297 92.60225 96.60894 100.3274 102.9195 103.7043 103.0944 101.872 100.627 99.25112 97.77724 96.20112 94.51686 92.85874 91.22729 89.57754 87.96987 86.5779 85.8269 85.81554 86.62997 90.58325 92.36543 94.52522 96.69163 98.76261 100.6633 102.4061 104.0712 105.8277 107.5196 108.8754 109.5542 109.4877 108.7608 107.645 106.4119 105.4133 104.6835 104.6433 105.2727 107.1411 110.5322 115.163 119.9457 124.0749 127.8667 131.8311 136.5845 142.372 148.3905 153.465 157.1385 160.3631 163.1343 166.4239 169.0774 171.0561 172.5555 173.5901 174.1151 174.1468 174.151
0 0 0 0 0 0 0 0 0 0 0 0 0 0 0 0 0 0 0 0 0 0 0 0 0 0 0 0 0 0 0 0 0 0 0 0 0 0 0 0 0 0 0 0 0 0 0 0 0 0 0 0 0 0 0 0 0 0 0 0 0 0 0 0 0 0 0 0 0 0 0 0 0 0 0 0 0 0 0 0 0 0 0 0 0 0 0 0 0 0 0 0 0 0 0 0 0 0 0 0 0 0 0 0 0 0 0 0 0 0 0 0 0 0 0 0 0 0 0 0 0 0 0 0 0 0 0 0 0 0 0 0 0 0 0 0 0 0 0 0 0 0 0 0 0 0 0 0 0 0 0 0 0 0 0 0 0 0 0 0 0 0 0 0 0 0 0 0 0 0 0 0 0 0 0.02748463 0.1273829 0.2272811 0.3 0.3 0.3 0.3 0.3 0.3 0.3 0.3176445 0.3930317 0.5016842 0.6261614 0.7260596 0.8259578 0.925856 1.022932 1.105142 1.170738 1.236334 1.301931 1.363495 1.412037 1.456394 1.467354 1.460042 1.463049 1.466057 1.469064 1.462925 1.42352 1.350851 1.246625 1.120025 0.9810128 0.827601 0.6966313 0.5750087 0.4828929 0.4243374 0.3895094 0.3552076 0.3218778 0.3 0.3 0.3 0.3 0.3 0.3 0.3 0.3 0.3 0.3 0.2907103 0.2482431 0.1836493 0.1 0.1 0.1 0.1 0.1 0.1 0.1051608 0.1350378 0.2016535 0.2761794 0.3388498 0.3366476 0.3245083 0.3 0.3 0.3 0.3 0.3 0.3 0.3 0.3 0.3 0.3 0.3 0.3 0.3 0.3 0.3 0.3 0.3 0.3 0.3 0.3 0.3 0.3 0.3 0.3 0.3 0.3 0.3 0.3 0.3 0.3 0.3 0.3 0.3 0.3 0.3 0.3 0.3 0.3 0.3 0.3 0.3 0.3 0.3 0.3 0.3 0.3 0.3 0.3 0.2836744 0.2170758 0.1504771 0.1 0.1 0.1093714 0.1725774 0.3256356 0.5254604 0.7109656 0.8774623 1.050125 1.234836 1.402336 1.571646 1.751935 1.960352 2.193448 2.426543 2.651119 2.850677 3.050728 3.259997 3.494618 3.739622 4.000724 4.255191 4.553069 4.854768 5.150273 5.431706 5.728989 6.039331 6.33691 6.621358 6.906128 7.163248 7.37448 7.558494 7.481384 7.640662 7.858605 8.153509 8.500449 8.849076 9.19184 9.582868 10.07101 10.66452 11.29543 11.93831 12.57235 13.21188 13.88674 14.58926 15.19147 15.61343 15.89236 16.16274 16.40467 16.61873 16.76904 16.94647 17.14288 17.37826 17.63629 17.96651 18.39657 18.94281 19.5894 20.36563 21.25009 22.51718 23.65319 24.64165 25.49317 26.17524 26.77018 27.23134 27.59591 27.91726 28.24764 28.66292 29.15143 29.85201 30.92501 32.42272 34.25673 36.2358 38.30542 40.35622 42.34603 44.35325 46.61268 49.1334 51.87016 54.69128 57.46433 59.95342 61.88784 63.23307 64.053 64.65248 65.01516 65.24664 67.08897 66.71493 66.5621 66.73971 67.3418 68.44963 70.07346 72.06425 74.26901 76.88609 79.99745 83.70997 87.44796 91.02691 94.26833 97.25346 99.31358 100.3469 100.3243 99.90855 99.17741 98.19913 96.97158 95.48078 93.82723 92.23841 90.84219 89.74284 88.83733 88.26697 88.12491 88.47108 89.25591 92.99622 94.59021 96.56239 98.60838 100.5675 102.4062 104.1864 106.2379 108.811 111.524 113.7434 114.7811 114.678 113.7181 112.2374 110.5469 108.8182 107.3169 106.2057 105.6709 106.2373 108.5513 112.6612 117.5246 122.1443 126.3923 130.7155 135.515 140.9346 146.59 151.6944 155.879 159.5387 162.5049 166.0482 168.979 171.3211 173.2536 174.8288 175.896 176.547 177.4209
0 0 0 0 0 0 0 0 0 0 0 0 0 0 0 0 0 0 0 0 0 0 0 0 0 0 0 0 0 0 0 0 0 0 0 0 0 0 0 0 0 0 0 0 0 0 0 0 0 0 0 0 0 0 0 0 0 0 0 0 0 0 0 0 0 0 0 0 0 0 0 0 0 0 0 0 0 0 0 0 0 0 0 0 0 0 0 0 0 0 0 0 0 0 0 0 0 0 0 0 0 0 0 0 0 0 0 0 0 0 0 0 0 0 0 0 0 0 0 0 0 0 0 0 0 0 0 0 0 0 0 0 0 0 0 0 0 0 0 0 0 0 0 0 0 0 0 0 0 0 0 0 0 0 0 0 0 0 0 0 0 0 0 0 0 0 0 0 0 0 0 0 0 0 0.03049323 0.1303914 0.2302897 0.3 0.3 0.3 0.3 0.3 0.3 0.3 0.3283038 0.4243963 0.5330494 0.6478345 0.7290682 0.8289664 0.9288647 1.028763 1.119107 1.185706 1.252305 1.318904 1.385503 1.438121 1.433333 1.423014 1.4 1.4 1.4 1.39686 1.380576 1.338163 1.264684 1.167968 1.05468 0.9224854 0.792236 0.6824347 0.6148334 0.5471574 0.479102 0.4125434 0.3569247 0.3236254 0.3 0.3 0.3 0.3 0.3 0.3 0.3 0.3 0.3 0.3 0.281331 0.2147323 0.1481335 0.1 0.1 0.1 0.1 0.1 0.1 0.1200636 0.1866624 0.263225 0.3432632 0.3666667 0.3568047 0.3235053 0.3 0.3 0.3 0.3 0.3 0.3 0.3 0.3 0.3 0.3 0.3 0.3 0.3 0.3 0.3 0.3 0.3 0.3 0.3 0.3 0.3 0.3 0.3 0.3 0.3 0.3 0.3 0.3 0.3 0.3 0.3 0.3 0.3 0.3 0.3 0.3 0.3 0.3 0.3 0.3 0.3 0.3 0.3 0.3 0.3 0.3 0.3 0.3 0.2816684 0.2150697 0.148471 0.1 0.1 0.1 0.135395 0.2748366 0.4767539 0.6956575 0.8715541 1.039053 1.206553 1.376362 1.558157 1.757953 1.965957 2.19544 2.426927 2.651437 2.845008 3.023501 3.224612 3.445388 3.70279 3.956466 4.24237 4.522711 4.808913 5.064508 5.343059 5.64576 5.948462 6.242117 6.515073 6.789896 7.024513 7.203512 7.35125 7.243135 7.378342 7.57533 7.850845 8.174659 8.503073 8.805779 9.148098 9.539702 9.984769 10.47354 11.05496 11.75056 12.48591 13.25476 14.04559 14.77898 15.31935 15.66085 15.91694 16.12893 16.32305 16.45995 16.58523 16.72597 16.9217 17.18274 17.50668 17.94026 18.51185 19.28203 20.23652 21.35563 22.93985 24.30227 25.45214 26.35488 27.03149 27.54418 27.90315 28.16289 28.39615 28.64867 28.96524 29.36812 29.99613 31.12457 32.7581 34.85692 37.07488 39.2813 41.3694 43.34023 45.38526 47.73793 50.46136 53.50779 56.61848 59.7181 62.43665 64.65622 66.22662 67.20815 67.69565 67.74779 67.52924 68.99451 68.27102 67.91669 68.00562 68.53641 69.57562 71.05096 72.85006 74.8088 77.14337 79.87901 83.1204 86.35796 89.42889 92.15408 94.50484 96.35402 97.54642 98.14558 98.23985 97.91144 97.24982 96.2651 94.91161 93.27538 91.71325 90.57263 89.92548 89.67839 89.78883 90.22 90.92892 91.78396 95.71193 97.18958 98.91108 100.721 102.5205 104.3754 106.5944 109.5273 112.9869 116.4623 119.0671 120.3385 120.2075 118.96 117.1297 115.0239 112.9141 110.9118 109.0845 107.6035 107.0948 108.3149 111.5606 115.9434 120.5059 124.8691 129.2642 133.9173 138.9783 144.3362 149.6345 154.3621 158.5883 161.8824 165.5556 168.7146 171.466 174.0363 176.2725 177.8495 178.661 179.3318
0 0 0 0 0 0 0 0 0 0 0 0 0 0 0 0 0 0 0 0 0 0 0 0 0 0 0 0 0 0 0 0 0 0 0 0 0 0 0 0 0 0 0 0 0 0 0 0 0 0 0 0 0 0 0 0 0 0 0 0 0 0 0 0 0 0 0 0 0 0 0 0 0 0 0 0 0 0 0 0 0 0 0 0 0 0 0 0 0 0 0 0 0 0 0 0 0 0 0 0 0 0 0 0 0 0 0 0 0 0 0 0 0 0 0 0 0 0 0 0 0 0 0 0 0 0 0 0 0 0 0 0 0 0 0 0 0 0 0 0 0 0 0 0 0 0 0 0 0 0 0 0 0 0 0 0 0 0 0 0 0 0 0 0 0 0 0 0 0 0 0 0 0 0 0.03350182 0.1334001 0.2332983 0.3 0.3 0.3 0.3 0.3 0.3 0.3197644 0.3911325 0.4981971 0.6161798 0.715888 0.8080202 0.8971373 0.9710629 1.046991 1.12786 1.208014 1.273611 1.333468 1.387508 1.433333 1.418078 1.407758 1.382262 1.371368 1.366262 1.361521 1.337033 1.29462 1.22762 1.139164 1.013867 0.8865679 0.7781029 0.7115041 0.6449054 0.5674599 0.4783745 0.4117757 0.3559218 0.3226224 0.3 0.3 0.3 0.3 0.3 0.3 0.3 0.3 0.3 0.3 0.2793251 0.2127264 0.1461276 0.1 0.1 0.1 0.1 0.1 0.106947 0.1409854 0.2055791 0.2762356 0.3442662 0.3666667 0.3558017 0.3225024 0.3 0.3 0.3 0.3 0.3 0.3 0.3 0.3 0.3 0.3 0.3 0.3 0.3 0.3 0.3 0.3 0.3 0.3 0.3 0.3 0.3 0.3 0.3 0.3 0.3 0.3 0.3 0.3 0.3 0.3 0.3 0.3 0.3 0.3 0.3 0.3 0.3 0.3 0.3 0.3 0.3 0.3 0.3 0.3 0.3 0.3 0.3 0.3 0.2796623 0.2130637 0.146465 0.1 0.1 0.1 0.1329037 0.2546694 0.4387495 0.6494272 0.8323812 1.004086 1.181138 1.364379 1.564175 1.763971 1.963767 2.163563 2.363359 2.562566 2.761817 2.97344 3.207085 3.440064 3.685016 3.950526 4.229486 4.508897 4.760547 5.02298 5.300529 5.594193 5.873053 6.143865 6.393431 6.635019 6.840815 7.003414 7.132748 7.042532 7.202754 7.38835 7.614673 7.863989 8.11014 8.36401 8.65432 8.993899 9.353183 9.744701 10.2465 10.89872 11.64579 12.45145 13.30013 14.15512 14.86863 15.36326 15.66839 15.87828 16.00239 16.05635 16.10079 16.19233 16.35854 16.57454 16.84487 17.23315 17.84047 18.78344 20.02611 21.47205 23.5193 25.17767 26.49389 27.40733 27.98796 28.3462 28.59528 28.80965 28.97583 29.13074 29.30671 29.59694 30.19248 31.41008 33.28108 35.58492 37.97173 40.27538 42.4437 44.47011 46.57432 49.00017 51.84194 54.97346 58.25902 61.69558 65.08373 68.0854 70.18224 71.27672 71.4214 70.87837 69.96313 70.75684 69.64723 69.07221 68.98835 69.41873 70.34121 71.66624 73.27969 75.09818 77.2582 79.71176 82.5186 85.35726 88.09389 90.50314 92.54504 94.23566 95.51611 96.40021 96.86775 96.93258 96.5943 95.84672 94.61235 93.03064 91.57384 90.62606 90.26128 90.44201 91.08598 92.16046 93.32222 94.4706 98.54282 99.88068 101.323 102.8736 104.6366 106.9889 110.2311 114.0462 117.8147 120.8359 122.8575 123.7794 123.745 122.9153 121.3919 119.3039 116.9625 114.6592 112.4887 110.56 109.3872 109.6823 111.992 115.5126 119.543 123.5274 127.7333 132.1728 137.0179 142.44 148.1628 153.3831 157.9098 161.2224 164.914 168.294 171.5408 174.8813 177.8987 180.0058 180.9491 181.3103
0 0 0 0 0 0 0 0 0 0 0 0 0 0 0 0 0 0 0 0 0 0 0 0 0 0 0 0 0 0 0 0 0 0 0 0 0 0 0 0 0 0 0 0 0 0 0 0 0 0 0 0 0 0 0 0 0 0 0 0 0 0 0 0 0 0 0 0 0 0 0 0 0 0 0 0 0 0 0 0 0 0 0 0 0 0 0 0 0 0 0 0 0 0 0 0 0 0 0 0 0 0 0 0 0 0 0 0 0 0 0 0 0 0 0 0 0 0 0 0 0 0 0 0 0 0 0 0 0 0 0 0 0 0 0 0 0 0 0 0 0 0 0 0 0 0 0 0 0 0 0 0 0 0 0 0 0 0 0 0 0 0 0 0 0 0 0 0 0 0 0 0 0 0 0.03651042 0.1364086 0.2363069 0.3 0.3 0.3 0.3 0.3 0.3 0.3237297 0.4021594 0.5138546 0.6352891 0.7351874 0.8350856 0.9318158 1.013197 1.078793 1.148573 1.223051 1.28965 1.344791 1.383599 1.417075 1.394356 1.373456 1.341159 1.313354 1.295889 1.286058 1.266074 1.220795 1.151946 1.059882 0.963942 0.8640438 0.7760971 0.7094983 0.6428995 0.5644511 0.4763686 0.4097698 0.3549189 0.3216195 0.3 0.3 0.3 0.3 0.3 0.3 0.3 0.3 0.3 0.2867036 0.2403582 0.1757645 0.1223139 0.1 0.1 0.1 0.1 0.1 0.1241433 0.1907421 0.2603734 0.3193884 0.3516853 0.3701473 0.3547988 0.3214994 0.3 0.3 0.3 0.3 0.3 0.3 0.3 0.3 0.3 0.3 0.3 0.3 0.3 0.3 0.3 0.3 0.3 0.3 0.3 0.3 0.3 0.3 0.3 0.3 0.3 0.3 0.3 0.3 0.3 0.3 0.3 0.3 0.3 0.3 0.3 0.3 0.3 0.3 0.3 0.3 0.3 0.3 0.3 0.3 0.3 0.3 0.3 0.3 0.2776563 0.2110576 0.1444589 0.1 0.1 0.1 0.1305743 0.2408577 0.4123642 0.6065185 0.7855072 0.9708056 1.170602 1.367636 1.560947 1.756262 1.956957 2.161908 2.36371 2.553982 2.72277 2.902507 3.116852 3.374251 3.660719 3.93802 4.215883 4.457844 4.695366 4.938992 5.195775 5.473303 5.75207 6.033198 6.276771 6.476817 6.634131 6.773398 6.908996 6.835462 7.007975 7.185108 7.372565 7.551067 7.71696 7.914574 8.136625 8.387593 8.635544 8.937005 9.383839 9.988074 10.70996 11.52085 12.39362 13.26475 14.0751 14.77978 15.26368 15.51375 15.57973 15.60652 15.65662 15.73587 15.83072 15.92692 16.0477 16.2693 16.84505 18.01327 19.70127 21.64429 24.27783 26.29204 27.75179 28.61041 28.98579 29.14973 29.3171 29.50658 29.64386 29.68137 29.69267 29.85476 30.41819 31.75926 33.8158 36.33644 38.84302 41.22323 43.4454 45.59016 47.8067 50.23857 53.04053 56.12509 59.56553 63.50979 67.78635 71.61386 73.96332 74.82919 74.55099 73.63227 72.20663 72.08289 70.67531 69.96954 69.76939 70.04115 70.7863 71.98238 73.46554 75.16121 77.15814 79.40916 81.89339 84.39169 86.81046 89.03973 91.00213 92.71254 94.10747 95.15768 95.85797 96.20488 96.18343 95.76748 94.79045 93.24779 91.81856 90.93034 90.94508 91.62133 92.84917 94.39059 95.88293 97.26543 101.2483 102.3681 103.6711 105.2751 107.5172 110.8368 114.9609 118.9997 122.0493 124.1466 125.4887 126.2269 126.3353 125.7461 124.5243 122.7044 120.551 118.2442 115.9037 113.8413 112.5907 112.5443 113.882 116.1915 119.1279 122.4768 126.2779 130.4593 135.1082 140.7013 146.951 152.7029 157.3787 160.552 164.3544 168.0593 171.7951 175.7099 179.2369 181.6481 182.6631 182.8948
